ply
format ascii 1.0
element vertex 875
property double x
property double y
property double z
end_header
-0.136693968573249 0.187395067977725 0.532953945015876
0.099175181954406 0.404747197495016 0.524134214313792
-0.396801540754573 0.298590504567825 0.525512513763451
-0.420182452042565 0.272007979554172 0.524746782678572
0.204187865487173 0.230945744462824 0.528378349206489
-0.029279268162464 0.104116034845418 0.521980300318755
0.204656384706341 -0.105899850245918 0.527062082090168
-0.335771524631139 0.338947831968652 0.523491012523100
0.413005515552869 0.326705021471022 0.529659284124371
-0.045065302361554 -0.033038619513896 0.526811663553081
-0.258784816617724 0.454322817798388 0.527604891811239
-0.133327256141158 -0.009216327401139 0.523085061467179
-0.233222366605160 0.049192165468773 0.521346504166498
-0.332310897773825 0.416276494529631 0.522924947730283
-0.440312507277129 -0.125158811398322 0.528277566193362
-0.000429999058006 0.291009209757475 0.523544451802864
0.282529683008055 0.147341064612110 0.523304275988021
-0.153484347849399 0.165417540553564 0.531194063688888
0.088358031991750 -0.005125202846226 0.520768918955854
0.169184934373464 0.324307099620581 0.530849311081761
-0.222606271738296 0.298289481288514 0.522349945521060
0.208639708807155 0.195681555775689 0.529467811965713
-0.355080757046236 -0.100532285771934 0.530357720267614
0.230115261143978 0.003622550199957 0.520436477113942
0.004768731331357 0.290199108580006 0.520248821599137
-0.288374509740942 -0.136614457115307 0.526347480295084
0.215086348999180 0.282334709643047 0.533311347529281
0.331184383072369 0.466371490389213 0.528311605526328
-0.026030579085342 0.067514312216782 0.522446924475665
-0.178905545571738 0.208531520927257 0.523981936852622
-0.045968497446135 0.376628331966899 0.518302899696892
-0.175826084618647 0.485808804446738 0.522027229986153
-0.393462694166712 0.318149384058277 0.522179653206142
-0.431136049976380 0.009490855667339 0.526871967748723
0.295927093928882 0.221588704518201 0.530331560985151
0.336532426327907 0.115226015093871 0.528660886426733
0.058168279123115 0.098857370293350 0.532295232261054
0.366447182316526 0.034681746692203 0.524530818675388
-0.275270827431048 0.228825754675731 0.528565698933884
-0.138238572064152 0.429608589904415 0.524011361917899
0.013876547313071 0.023629473125681 0.525514861467251
0.069162406514567 -0.032488461201171 0.517790328759344
0.312961391230329 0.472265427759678 0.525074548216764
0.106597889939628 0.310152019064419 0.528864121352266
-0.433681559006048 -0.134781786890911 0.524547463970837
0.377811370822553 0.349871277440590 0.530635689894907
-0.284873222740757 0.318013511359206 0.523670219217051
0.249600947118651 0.137139662063842 0.522244272460564
-0.409235954821409 0.067500746855031 0.527480885919995
0.063286020676452 -0.046086755192859 0.523156038368319
-0.439340340988645 0.003991651757762 0.526386976580787
-0.251813829709572 0.458915294818902 0.529858024332513
0.163496044744552 0.120848468077372 0.518464024196667
-0.343092897097002 0.097471870731106 0.529133346112923
0.130085662311057 0.290742071530008 0.525327634990430
0.075345585221245 0.307343196184984 0.527174012642973
-0.392691545900982 0.291862241963394 0.525053469888876
-0.062429118477170 0.376699886707612 0.527694144189277
-0.093764465136482 0.054285609030694 0.521272014008793
0.298407454091468 0.390295941796700 0.531093841016821
-0.208929638365064 0.282695728758236 0.525376047548305
0.065341483677390 0.432478963014808 0.517456932201954
0.370324975175780 0.364086174031446 0.536010845806301
-0.287232340077840 0.435745416938529 0.525398302020732
0.203148343769753 0.447675839167484 0.526912817284010
-0.346892268295580 0.109070990827756 0.526367329079753
-0.438462594756305 -0.098947059684108 0.523081944133667
0.130618617142276 0.466822219762125 0.526105942818929
0.305856466969361 0.428409218854618 0.532764680485550
-0.402644792603426 0.355089766020485 0.529459824138834
-0.054817284034476 0.051181195415573 0.526435358850374
-0.137165896556648 0.471452027645873 0.519834987645872
0.373180666283095 0.132899141037563 0.533470730214566
-0.081348437404707 0.001633467092192 0.521618979646393
0.230298550626873 0.306399587679322 0.529276083236162
0.308339029942051 0.308354883388889 0.536397329744545
0.115268004717137 0.083403378169954 0.521374194672747
0.258634050271426 0.454738810268181 0.522811028954764
0.200553911938070 -0.011699833754402 0.523017888843995
0.284902032562115 0.403994499048260 0.525572615399082
-0.248022298160780 -0.106498459226793 0.532184327172533
0.426401762657588 -0.012081979989737 0.524360775821171
0.014605744923944 -0.001338642681104 0.522756394034612
-0.102306247752952 0.243240003540723 0.521865077866150
-0.078025831152430 0.248523942923593 0.523368298644631
0.223290101085691 0.344169262346677 0.533372444521560
0.117720219905064 0.030116632855363 0.518952166296698
-0.206120461304741 0.323156398522050 0.528306833536671
-0.436338213336392 -0.099216698314953 0.530383021132016
0.362720826814255 -0.137911998362090 0.524272313125386
0.394641578243732 0.162137637054345 0.540882374754725
-0.181874808290688 0.324208426483289 0.523807078912313
0.288882792179510 0.036563886610012 0.521117291332123
-0.146855055780291 0.142138345068035 0.533181548257895
0.129753936855670 0.184893930898063 0.523700173000761
-0.313678614811201 0.122703040174288 0.529420417599783
-0.298914339420520 0.082603056368108 0.529548242459128
-0.239715750175574 0.420623690274513 0.528846178943368
0.023020046765955 0.290992395255096 0.525053313588726
0.376562592401016 -0.100634225472578 0.526304139773282
0.199326426296943 0.455343914438715 0.526469220206118
-0.340317697466993 -0.136870147284338 0.533448267024652
-0.043392319273182 0.351982232576443 0.518556320020079
0.203892955575148 -0.053481462241020 0.527732629140467
0.195636595440618 0.461744010131699 0.519110049591460
-0.061462961314409 0.307160573612738 0.516403649630209
0.396646301930481 0.474036072846739 0.526782105390930
-0.182373500018393 0.448675943251192 0.521756844677434
0.226061466448708 -0.101305783964427 0.524539627649915
0.276911687486395 0.142591340488007 0.530985970886350
0.128588181479339 -0.056349522598736 0.525269853531413
0.041188004718775 -0.072055471247967 0.526254731129004
0.071451164790866 0.359278460055405 0.528835438108386
0.186529121062850 -0.028692481466079 0.515952014105048
-0.411270558383405 0.341690092247825 0.526368206326437
0.039437572410902 0.078955115697403 0.528857323290584
-0.012450409169693 -0.138979397460332 0.518444723316748
0.380131083416048 0.478596729609518 0.529095111883859
0.367808156294269 0.132704632485516 0.541302161560456
0.208238475569803 0.138851325580887 0.521404577470552
0.048674010402736 0.025029396880413 0.523331875278278
0.289523308365810 0.466543775146656 0.519306293044556
0.225876726825611 -0.120989146151558 0.528599061325158
0.326771526151791 0.195566579566023 0.524355817155504
-0.434891027476546 -0.086973054365244 0.527470213637002
0.356203028863974 0.324602127909666 0.527910640234115
0.280668987946482 0.277292516023128 0.530892265798856
0.250064876384018 0.436948419464512 0.525924338543897
-0.286657068006356 0.103329660087756 0.527299681973684
0.210173300675061 0.226786026160095 0.527687342333390
0.309748658430652 0.484606258767177 0.527842451984176
0.124304147048125 -0.017019347424354 0.518434812194124
0.053406451504524 0.439199050712819 0.528626295285700
-0.423261541431431 0.142589697277647 0.528771918963516
-0.074265260318734 -0.115945376821095 0.525228503129585
-0.307439324991420 0.117462604377720 0.525838496786254
-0.378579295704538 0.263299318197883 0.531067978324774
0.399167569768109 0.299304324660285 0.531921815324864
0.429837861247225 0.006742452315363 0.527515751657652
-0.021968910178429 0.445829797699115 0.522806095174700
-0.230257564210288 0.430795261297378 0.531425149466475
-0.052443555635278 0.218335429317500 0.524414316237127
-0.417047454259710 0.439416385366218 0.524625707649967
0.370870574857756 0.385857034123580 0.531382556905642
0.409703750541434 -0.059792230550681 0.529548022665712
-0.143142037458838 0.250514332198584 0.519774327259402
0.373803198995578 0.090791936941847 0.536308777232978
-0.275370781141604 0.225030974671601 0.528333848299921
-0.190345153300507 0.048798540558339 0.529110033189456
-0.357072811663303 0.052032895532575 0.526880410963434
0.328186486727888 -0.148261488849045 0.526460842976936
-0.073230132121408 -0.090489466386609 0.522049892181122
-0.312818797236920 -0.108213717942975 0.536224210708740
0.254758418354661 0.228473606553569 0.532762583288059
0.031307776539506 0.055873157680112 0.520556307649670
0.280453593103214 0.073311706281176 0.527613829747179
-0.404959595484091 -0.082098810210871 0.522890087568348
0.105633264969211 0.395459907138523 0.529469952659977
0.115830424580190 -0.016068498541664 0.523188926783670
-0.445942440955422 0.283467347940321 0.526202255125393
0.261381149660084 0.448577164384665 0.524191936984473
0.063918631693044 -0.089791075980002 0.522064734598566
-0.145241613073742 0.163156350286902 0.530806422215152
0.385422804682615 0.003545823388333 0.526737415055883
0.381952319159808 0.148404250303141 0.540615208668234
0.035903617277879 -0.093826519348763 0.516511740932533
-0.091496588719903 0.248328422260233 0.529694398728531
-0.317838672505244 0.436795035944426 0.526671118484668
0.427527214613718 0.066059883685545 0.532149201197274
-0.409438486967414 -0.009788723541969 0.529408148231395
-0.093554917306305 0.181478462593827 0.521057467522044
-0.440466909302971 0.355093887827529 0.527386713056033
-0.280345800631483 0.336221630840497 0.528261123568623
-0.443901517559975 0.328845305035261 0.526610415995024
0.259777771896143 0.082954884441165 0.530815034824785
0.304175930901515 0.340018557865872 0.534953664250603
0.394905698176359 -0.021420383374396 0.525477091318259
0.370661994905077 0.233988221063205 0.526404316769459
-0.278031107932532 -0.070270794145456 0.532774513157235
0.064638131257923 -0.090298868511144 0.525182446079703
0.377558421529135 0.171129753384540 0.535804288938199
0.027660351354787 0.459036346233011 0.528312321804779
0.298909207859443 0.181242353805723 0.528267230937642
0.394467694943779 0.020675693204571 0.530530886363890
-0.216520158222627 0.351741679049070 0.520495932703582
-0.290508282950006 0.423051807639613 0.522919549251918
-0.124302344702485 -0.000543885535704 0.523175998031574
0.026730080493601 0.047256353060123 0.521491265013900
-0.425483268564475 0.438731979303056 0.531634284581061
-0.050947866928018 0.329625624771138 0.517989736227116
-0.394697485057159 0.303702276126840 0.525385821114918
-0.448631321487934 -0.001006501344844 0.524105108455175
0.134534051137834 0.400555619308118 0.531028975542016
-0.388126583119886 0.364766979037123 0.523107065301913
0.206234429737445 0.239814582468487 0.530704608942845
0.122438554275514 0.039685428182011 0.517875047626810
0.127330050584155 0.297976381279775 0.525580609633286
0.054629307330440 0.075381733750351 0.526766319214109
-0.214185048724611 0.069312935651137 0.522910094198957
0.316959747270109 -0.115773998984686 0.528442054813515
0.164054764303435 0.237624900689419 0.522814218649846
0.072491790164051 0.330904194333193 0.529786883773037
0.411122686811984 0.459634656797509 0.523120250216657
-0.136505303580149 -0.107049857350858 0.526853548944501
0.271119414967802 0.146419751838579 0.526604556065590
0.427658942455365 0.406298967971125 0.524032220211103
0.169096843623685 0.287393420282343 0.528363427408785
0.376857887577631 0.111210073718774 0.536759449745466
-0.206212679438826 -0.087937144806164 0.535059708061510
0.124885548842253 0.356125511626354 0.524808764021604
-0.454800465685556 -0.046085348255280 0.528245587560426
0.227896384727475 0.423962373334735 0.526793444339955
0.435125406735162 0.018062491010957 0.529728122503231
-0.389298930398866 0.310053863797688 0.524934023293340
0.220254647572211 -0.038206127456931 0.516119665816003
-0.114434602482134 -0.110633884975959 0.522974784074491
-0.364114721198189 0.049587288942597 0.523186223371153
0.418760268227312 0.045278545982740 0.529674503705962
-0.346596378365481 0.444473866518701 0.525495594114875
0.231970188033971 0.290526802967733 0.539453019309378
-0.277252123479623 0.018898957066549 0.523958885608543
0.273447811639312 0.076580698899267 0.531816786043853
-0.018640907554212 0.189241107460274 0.524697259078301
0.064797874368970 0.172188609416248 0.530385739557795
-0.179050194462740 0.318026247777253 0.519132015058972
-0.446369009800732 -0.031598238330671 0.527926679117070
-0.328429633166575 0.084972639433944 0.528099369530015
0.182133868922650 0.480184233680175 0.526388316894996
0.259948115000130 0.247772869983004 0.531192857749982
-0.469057881802051 0.133434227987384 0.531355848209908
-0.078129369087140 0.243570660347274 0.523666977733290
-0.309830682973645 -0.023587953634783 0.522605550294641
-0.357379058357383 0.212462380061193 0.527824275169278
-0.427573068101110 0.332153987514176 0.531491350194856
-0.323961310921052 0.069287014458567 0.526366619281737
0.302525783152314 0.353066368184188 0.528044697385027
0.031132680300840 0.370025974550470 0.521766623754107
-0.048734115834979 0.392684461293010 0.523749488231123
-0.457160014403640 0.315539578124323 0.528492044270627
0.040716863369361 0.471108810948953 0.527296579940562
-0.346071863028533 0.185117151739543 0.532661685867336
0.144384149210838 0.124524086743299 0.522693940509363
0.313020599799337 -0.151607217429282 0.527028646296185
0.152140016054755 0.371948997780879 0.523823638040920
0.075985055851613 0.010241393126369 0.524883645421395
0.142655560625811 0.302124152223306 0.523026014522520
0.182352250301797 0.094070824974316 0.525891881619279
-0.385519087864603 -0.117518795196164 0.527429852271807
0.144799946887006 -0.025387180338747 0.524088462800497
0.420286431140710 0.159204704651230 0.538183855083418
-0.212068325895898 0.051357041294270 0.524448450279537
-0.199157864232944 0.250306822028168 0.528028037474952
0.034597333334580 0.121712810656322 0.526487668941289
0.349257428143364 0.000326941413748 0.527384478995255
0.149139909012049 0.051872881848493 0.521419156874987
0.117601265164533 0.010771959556039 0.519747339896129
-0.147186594768792 -0.137379029359621 0.524411961437155
0.012409484715408 -0.042826376448568 0.524891335244150
0.280875250141343 0.378390323404074 0.533887675000039
0.076917264644889 0.295703434056119 0.519473857046745
-0.282993683517695 0.430221346447774 0.516580715462543
0.072406356168893 0.074706660831362 0.523908665336314
-0.275548208594068 -0.139594006051855 0.525072528703325
-0.243122889962793 0.451054572781549 0.528931787508028
-0.095064189936584 0.150350471221245 0.522458850223988
-0.126381758906951 -0.078493904834066 0.531123469472944
-0.311265679678428 0.023278124197214 0.535636838372104
0.004462360168595 -0.141015482561448 0.519144857462243
0.425815578751972 0.406396153167110 0.532070678402493
0.099029549106458 0.438402852470704 0.522576620977463
-0.460393718010388 0.185239940740472 0.532345204275535
-0.158621531463992 0.479336025344437 0.522886858231007
0.324792178786829 0.215790217255991 0.529626246351583
0.202378149522245 0.401797896171452 0.523015568557104
0.094063700704887 -0.061358425676686 0.523268699951185
-0.421077051328641 0.484219742385673 0.522980760986803
0.219974795038268 -0.086328430236731 0.529832598434753
-0.351145132288589 -0.035598564856699 0.536759604960290
-0.389581440319409 0.278893021962144 0.524584184045709
-0.145699267520152 0.354365551554114 0.523945793476907
0.075540400407965 -0.093553606709940 0.523796679374825
0.167790117453641 -0.050661025884350 0.514634165949453
0.070292221519450 0.030448156198527 0.520611586271103
-0.011157389340086 0.478637337874761 0.522604304661474
0.089599538183475 0.371434255894777 0.526974750335830
0.117308649116955 -0.120892312843331 0.518482369991637
0.275818107362895 0.158178764384539 0.529795989834859
0.127376666502863 0.104764257410667 0.520337912677018
0.358375419071886 0.093123307806456 0.537239055400287
-0.396680571539807 0.092275065170805 0.524919850961321
0.264060114708414 -0.102928260651948 0.528378533950479
-0.282520779042337 0.339539234783274 0.531643891303283
-0.274722127375842 0.164020640199211 0.529622144267084
-0.260448482001897 0.404770725483776 0.524486163884786
0.359788907221268 0.443628614641824 0.526323818121185
-0.165417120481705 -0.119424743767498 0.527016822852211
-0.336233406991839 0.470683526429173 0.533107127978519
0.088080904978943 0.480214172432143 0.525017079474946
-0.038604552928536 -0.018672804593082 0.521770263800255
0.238695261947803 0.228924385701400 0.529969791461881
0.181052729364727 0.130415063886477 0.520732651177824
-0.093776651761587 0.476031961953217 0.520673589821367
-0.045021619421195 0.009025962855079 0.521040680660600
0.003313679482745 0.077178808140501 0.527985726250697
0.107625834723773 0.079001639190374 0.522430051475761
0.356004162860533 -0.099963149580805 0.524088010670698
-0.392431773211929 0.105572957409876 0.532592542663071
0.435923767411401 0.166459908600266 0.535442432446434
0.435600160571355 0.314711262820065 0.538057886196808
0.248416669973212 0.018252128675415 0.526638896787395
0.120533495931653 0.069038386398061 0.518823799380155
0.071623923232291 -0.124497117797346 0.517524655752755
-0.376977344224042 -0.093695278478527 0.532696663145271
0.246161970716066 0.178222546945492 0.525139361286480
-0.255850151495232 0.024573645311442 0.530495124474974
0.348218406528856 -0.139397170133739 0.521980378819551
0.178875545101563 0.052599958073628 0.522534066022069
0.022266883829420 0.478995071149042 0.529798796252839
0.088109606271789 -0.045472183111970 0.525012194064278
-0.123244007374914 0.441470187118026 0.524161159644151
0.307547647822015 0.084323530701293 0.529078709796622
-0.066500478798044 0.078022963675471 0.523644315103050
-0.058363027034973 -0.056236991016226 0.521298658803394
-0.413335540672381 -0.033152374301853 0.535497025769509
0.261233634131044 0.196905006496216 0.525694704430682
-0.202580519651404 0.251837472021682 0.523430529930955
-0.075590789473493 -0.002032395847576 0.527301313794868
-0.275526934505575 -0.090915164018697 0.530451324653785
-0.393401095044407 0.343516381505382 0.523046433416603
-0.249586947399750 0.419789646727180 0.525557690916913
-0.094097024896409 -0.072387540656516 0.518156020807100
-0.311001739995155 0.448594968908571 0.524569039699928
-0.013508726072036 0.407058832930034 0.523685332927418
0.164091615587858 0.181072218641026 0.521039525041611
-0.209276737234197 0.055500731211314 0.529962378164005
0.065429004445321 -0.063152219518017 0.518715400889309
-0.132967113422890 -0.045670248897513 0.527031176073048
0.369290111197333 0.451758886291176 0.532136085055411
-0.293593862853849 0.304357700225765 0.523970121731536
-0.263489360834840 -0.080412701232842 0.536716009120291
0.017296647104403 0.011097248851903 0.522249821641984
-0.199844974315379 -0.000501808266492 0.528298901785677
0.347440875213951 0.000533243315565 0.526939050165674
-0.286275351965812 -0.057625261070295 0.538121881072988
0.237403620898342 0.292032647432988 0.533594848424491
0.147127335857338 0.472975973677271 0.524532569244191
-0.385742754591271 -0.074265205110224 0.529948463723402
0.202577619591699 -0.049791335020357 0.527487593487934
0.260425907025010 0.056642854919349 0.527362496012026
-0.226304370946185 0.196436130855006 0.525262939265463
-0.455670125912631 -0.116899481622371 0.534288230754141
-0.408794393568618 0.022651038272417 0.525746390276559
0.063738161689512 0.171650829541792 0.531100280870954
0.221863210077278 0.435381813377310 0.529182339989583
0.239663323560878 0.319196618416799 0.538454742972696
0.231929437967458 0.168215769649177 0.520188588373188
-0.152137260565081 0.008455754099714 0.528275523929030
0.405143537446221 0.036353241914099 0.525428261251400
-0.280176663588165 0.014800139198963 0.534359837043286
-0.332645050232911 0.172851577622291 0.522907867789211
0.050586198027647 0.366672206500345 0.525112254446863
0.021200445653651 0.308656287420841 0.521255327031125
0.288434426526031 -0.146396376622499 0.527934917457377
0.247030716426062 -0.011793110686457 0.523145488813485
0.305844523357344 0.074483511952560 0.523209352425210
0.215945120202923 0.452954693801791 0.518590247345789
-0.029428266842017 0.071520940123806 0.520702427372460
0.194500264842042 0.060397223904762 0.514597410888977
0.279662604323408 0.059200649658501 0.526993108082271
-0.285288552490656 0.136394291349426 0.532425788594601
0.026567107438976 -0.013228809627807 0.521758233078007
0.086282953386756 0.425455476070409 0.525455099520665
0.384782312707105 0.146805652263818 0.531986520909535
0.222331283528977 0.047440212734917 0.519459321875211
0.098097274648370 0.026280131913505 0.517398497448461
0.129590794414771 -0.000736099756921 0.519635976041070
-0.436195173984675 -0.030804247358823 0.528854675243481
0.176581449406246 0.454813614012370 0.522737940432489
0.021416703008562 0.208111273082910 0.521621737126440
-0.412588788346365 0.211760818338073 0.531193091824145
0.016633720582998 0.376261318387133 0.527293257730334
-0.468094403175269 -0.035223589464437 0.525010876828050
0.206500806881985 0.241927906896061 0.530701575019158
-0.163265261588843 0.352320363246379 0.518861415241381
0.005450321043320 0.328751252960450 0.524957635639218
0.115816769817470 0.125830372276495 0.521654325624325
-0.346193836085027 -0.093190525839713 0.535043595281214
-0.456585902211156 -0.028818829116995 0.527889766951736
0.366725594997537 -0.036627835507800 0.524599975299793
-0.320744042953521 0.191215014941951 0.530313823987455
0.099178761099031 -0.019661786308022 0.523507474559753
0.115240829843152 0.424849649113957 0.522432989499313
-0.448512867201314 0.409474115082314 0.529381705503303
0.428723129707464 0.381667399922977 0.529970940028509
-0.344818243477625 0.175968638273280 0.523919122480950
0.291119523474887 0.318904655370509 0.527744556512448
0.095531441270017 0.277369093478445 0.523484997327937
0.410795531585798 -0.026389337618215 0.525123020143096
-0.407259990134426 0.194364467360480 0.528507748526223
-0.437831745242046 0.469716164689591 0.529169072702134
0.245125244488935 0.234443790683009 0.523918404178338
-0.335925060438653 0.382897953992995 0.523388122031747
0.262482121002096 0.318584896082728 0.536390710488917
-0.299527540332701 0.363456271674922 0.528348455054336
0.190606710663588 0.095417016297236 0.525842071069118
0.054492818148430 -0.130636327463665 0.519811508599650
-0.183665717681252 0.084547384662122 0.528648645526976
-0.381792139276517 0.035494441114550 0.532175772886965
-0.467293616964510 0.076499989921551 0.526278900944425
0.403271509345869 0.167854609915008 0.535032769055065
-0.183563976390208 0.142587074409629 0.524730560250014
-0.339419569764811 -0.110647144802708 0.532807829204484
0.126540100925657 -0.022261441893625 0.522254767897248
-0.297138003108205 -0.135348594135180 0.532433376138046
0.209630930359861 0.444375702043385 0.525723693814193
0.434717923498113 0.477331690027342 0.528367512260655
-0.421220252404932 0.173197224474657 0.537794475714100
-0.113330023095872 0.039756196267687 0.528309352777443
0.091590480522434 0.292240191022407 0.524625781572775
-0.427825636788851 -0.029223953815834 0.526961752162623
-0.414273366759134 0.401881256096145 0.531919486966441
0.206007689749219 0.315513518719165 0.531995522718019
-0.393356940805960 -0.037069141626445 0.525977398255999
0.377882054345584 -0.117728138893652 0.525508620797211
0.116266430088480 -0.021749333966186 0.524726089995430
-0.405079659123479 0.186975996070210 0.534742089777577
-0.461273367941225 -0.137623905165476 0.531727984239272
-0.294690528315096 0.416158767074504 0.524875846534681
0.308733643064598 0.416706399152944 0.527930438436653
-0.284960592926829 0.003285709832232 0.526598200359112
0.267116826847527 -0.055198605330074 0.526390601816633
-0.265978483075202 0.424814796915435 0.523502955799348
0.294004381544735 0.251673824621236 0.535283919800356
0.197803684049612 0.466825426473066 0.524124095127257
0.371903817940252 0.236527801542043 0.535518980248641
-0.018688194053192 0.043314619571545 0.527840861374508
0.358614912872192 0.369982332433571 0.534243175528364
0.272697325747561 0.465174359079124 0.525799869122083
0.352202579833183 -0.112674649286630 0.525314269930091
0.069344619561377 0.471374949651293 0.526387005678126
0.058371094856055 0.367582536889095 0.525180332034240
0.110506015672498 0.308056045867515 0.533737894530957
0.419464349530712 -0.017602492395622 0.526482786827460
-0.298661053199944 0.459168816716666 0.528483201686375
-0.068264560263658 0.220110504988771 0.529123872460913
-0.059057013392822 0.084484412633000 0.526929563880305
0.069323457485458 0.369143261239478 0.533161449349790
0.362363514279295 0.123688697640721 0.537264363267612
-0.114291749307359 -0.051585885441113 0.527808737415291
0.022187571345735 0.403986861759788 0.529843695429921
0.356440485601322 -0.104504141252566 0.524354102291977
-0.337875966210868 -0.021478953973311 0.533914298695105
-0.419916939933389 0.199432045168286 0.528693468510980
-0.166143750519010 0.082508795332593 0.525810578527588
-0.439091696111557 0.239635058437966 0.526938259453000
-0.131917727002217 -0.045174809415006 0.519270540975339
-0.394927061841127 0.437950145512197 0.522381470854618
-0.127467379214015 0.229440183529705 0.527686804904946
-0.446044159682441 0.460707988570545 0.531712925278599
0.019172289264375 0.145933244128815 0.525050990348815
-0.181254133011819 0.280526527921976 0.518723958520034
-0.361993029881535 0.383072778854913 0.528759091194148
0.092159126770922 0.064310388999490 0.520670100988877
0.325674129391326 -0.146411353037091 0.529879070827402
0.032961272785416 -0.075998373554481 0.524908616889471
0.418229589618397 0.477203198530407 0.528628993785904
-0.218582477436769 0.362420383691259 0.527015065666048
0.424867165656787 0.411190035779668 0.531342533323397
0.289103474868110 -0.136025477565752 0.529097697395665
0.052261423472710 0.032354305062522 0.521024869787068
-0.084955665974030 0.408091166177155 0.522046536182053
-0.137131001313441 -0.117183501409959 0.533479738807900
0.368240962237082 0.334453932801239 0.531449027691379
0.128805752780494 0.390761143976417 0.531695044640523
0.191843816450573 0.475726657905878 0.520714995220553
-0.196617098230167 0.258683057696365 0.523755413521743
0.136060601946357 0.383197430233768 0.528139153499577
-0.115296908092715 -0.016915379909117 0.521154063409699
0.430968988709754 0.312857408237429 0.526941505512780
-0.132939636137701 0.055981182385711 0.534172377177008
-0.124890238504871 0.151519536160382 0.532706621574912
-0.213390736421421 0.358125727331447 0.527578929078342
-0.395072556182504 0.480755879759155 0.526357123232387
-0.410899482830793 0.168084490242395 0.530160823205802
-0.250728440222788 -0.053869449703773 0.536781617604223
-0.409541570017595 -0.028037024778276 0.526721102210585
-0.083956612018809 0.302139827086859 0.519228146489138
-0.134886148184347 -0.029687928941898 0.530461374570693
0.048074842904716 0.115998660987343 0.526215153169155
-0.460097492655280 0.337993615092744 0.530719225221990
-0.317765437817554 -0.145106663031528 0.530480127361327
0.068484504373470 0.245258903791955 0.523965629940456
-0.030560076291166 0.186169433953701 0.526360014609613
-0.011991387554431 0.042002044855870 0.528518006268736
0.379966424631128 0.340250227208434 0.527268816772043
-0.338456602515798 0.177695853463597 0.530280210200456
0.052561808076754 -0.049218882857344 0.525575988472508
-0.335422792250105 0.020412375910290 0.526082058450579
-0.302423943599959 0.057716339011939 0.529305072399017
-0.426763903757220 0.349835807749419 0.524106646104160
-0.128636446835206 -0.110420553102444 0.529948584704685
-0.408117215627516 -0.077694192957698 0.524278099579271
-0.416772108031563 0.490761134866645 0.523867068470841
-0.423542736410671 0.056783207063171 0.535568793552715
-0.291967519447667 0.372681263876955 0.520153248882333
-0.068726046018203 0.273019320290106 0.524903114029939
-0.010825487517733 0.260266618028012 0.520306499403719
-0.376058534374703 0.470490312559366 0.523382431377186
-0.353238739488665 0.460232460341905 0.526221409263463
0.110051571690964 0.046843044403290 0.522062059283016
0.370678242532303 -0.107732606790257 0.526372843256713
-0.040489791171094 0.257176286739665 0.524512333701666
0.268573404290999 0.373635123569960 0.529786121526321
-0.322561812153168 0.197301814641098 0.528693478647887
0.279851394669079 0.042120846932107 0.529892864145833
0.431535060925899 0.247107997259352 0.524685034996229
-0.404143294928310 0.445080806384664 0.522680913858739
-0.275500953771610 0.138164762141910 0.533935984305160
-0.445321247501143 -0.132537819264906 0.526921482571296
0.115128092583011 0.355638168943092 0.533815064181672
-0.060534566724605 0.481636991048805 0.528023198647363
0.159796101539482 0.108602133342342 0.526577500019805
0.215290624083006 0.200422550001448 0.527406733856441
-0.426716015106903 0.219869886532279 0.526179887900451
-0.403882618906307 -0.013566634691875 0.523943245719235
-0.123350041883482 0.166085231554801 0.531661380747324
-0.308194744167862 -0.110854943019494 0.532662086260268
0.059442828168187 0.193917350873658 0.524209401531663
-0.322371837579090 0.138462808512648 0.529927049930554
0.046130044732948 0.027277200466178 0.526114395065777
0.348249376155865 0.050918615706056 0.527758890198209
-0.027869338597526 0.413167542492703 0.523938479735855
-0.106567667055706 -0.135331590962150 0.527513066450088
-0.099613521766351 -0.106818328190213 0.526293695925142
-0.385168235633236 0.034487781609210 0.529431355322503
0.373183431321939 0.209326831032314 0.532750843272092
0.131556881764351 -0.066281283926457 0.519945313504760
0.050676019897990 0.292636325097441 0.527226119612230
0.133428412759382 -0.121605780569508 0.525766762827553
-0.270060016127336 0.440664439689500 0.528017586019142
0.175364312228255 0.092030698496466 0.521714091070440
0.328171057687153 0.140678927821586 0.529897108870239
0.059562963933439 -0.057591620598752 0.523194773317458
-0.205533814742965 0.211615922445669 0.527470425273286
0.336305853256641 0.190578073645779 0.527434026694182
-0.376346403882430 0.108968823516569 0.526223205648625
-0.300301232056661 0.147423229800380 0.532103318362840
-0.295985955306871 0.078873664559703 0.529006029308239
-0.164145629932297 -0.135197119138618 0.528350768728946
-0.314919631440426 0.040688122325282 0.531029356813250
0.082811444938869 0.024930815918325 0.521926948178099
-0.021979227067435 0.051083842906387 0.524629197533676
0.254650442801998 0.167605593249273 0.530198887888004
0.049068952465061 0.098112834659287 0.529503820840067
-0.200366374155623 0.006674663528033 0.522222142327907
-0.198680978255502 0.137151838936323 0.523986232506020
0.002131794222663 0.357214720955244 0.521007139691233
0.188574448186333 0.317337150476107 0.533943428364178
-0.124862735315480 0.119309487567533 0.538173453879825
0.362196536349379 -0.068766892114018 0.529660844152559
-0.422171359069920 0.061367118631386 0.526596276061726
0.001885885816387 0.410417853914485 0.522615207852652
0.365797102298527 0.332086148167428 0.529359353948525
0.111585444357153 -0.043760920555343 0.521422529935906
0.122309597974662 0.473593328739488 0.528836582301146
0.030202430671919 0.194046255194939 0.524818187548157
-0.147652504997660 0.249707351751535 0.526500283991263
0.194749268303958 0.246942327751285 0.533081355029218
-0.434546321259930 0.322861513995739 0.530854247856262
-0.205364942436745 0.302071921981983 0.524148050746673
-0.087994055142497 0.142149263171335 0.527285761273238
-0.309876525772461 -0.136746576900727 0.525555446969069
-0.259339494635119 0.014216393799452 0.527196676199781
-0.330069518229755 0.340312296656492 0.528282793804613
-0.111229312799860 0.020725207672390 0.528844867753920
-0.454587330551453 0.041850419587931 0.523110633724102
0.404984349493630 -0.011219507717111 0.524723249773162
0.081203608391739 0.386532829355408 0.526317967603673
-0.132049657235159 -0.048751525197986 0.520598380537268
0.291087734418056 0.003240984020922 0.524082355120139
0.011871214343024 0.054128062745191 0.526992294187867
-0.195770351407382 0.274716031448821 0.521793560436792
0.233853231718357 0.422950340356858 0.531739674180120
0.227080366385182 0.058970591742681 0.522823028761194
0.415427661336580 0.414023534299273 0.530915804203000
-0.087083100820563 0.189299904754041 0.526992013035739
-0.462769369065755 0.470475720224046 0.532077099943480
-0.070347978788681 0.424716784539721 0.524946345938780
0.355347289135669 -0.102405504729975 0.527147680599585
0.358681702116271 0.219895145987741 0.525219538159212
0.249627309414591 -0.048515720542757 0.528649270555379
0.407556420150798 0.347144927574169 0.529230369777698
-0.162327146311694 0.482978902277123 0.523610655632677
-0.439450478012161 0.185973641698469 0.527806320274408
0.425101024260385 -0.105667157488775 0.533840304544858
-0.194512165955483 -0.060355526787319 0.532472980768820
-0.170319384749765 0.488258942937326 0.520997426569092
0.372479286337700 -0.012757538603867 0.519542268456056
-0.219848673904546 0.207474022389688 0.528325402546647
-0.015039006755937 0.312891193662529 0.522769627305484
0.327013990540801 -0.020260525982726 0.526352319644787
-0.029519523600054 0.005416283080900 0.523686642822380
-0.148475886470630 0.102747522161521 0.529748128396339
-0.227485093702390 -0.095467171409717 0.532609334449360
0.028246025712361 -0.086701373593241 0.522937442891978
0.203853510360836 0.428242861104115 0.529148020261650
0.409304468045010 0.415523443538644 0.531762589214693
0.162196356204602 -0.031730949730771 0.521602297386690
0.288332287970520 -0.079295585123550 0.527989514421086
-0.388764393427857 -0.115117997986693 0.523324723204190
0.243194690965042 -0.072648431195509 0.528750519240810
0.165943948639787 0.442657176958514 0.523736725250063
0.295080271821929 0.147677284877847 0.526430160802524
-0.122343518968397 0.444238465348017 0.518721318497744
0.397562375502254 0.200008800964004 0.533962179389726
0.095159418803519 0.366930836772510 0.527365459527696
-0.033721756664253 0.081931333145767 0.524277596798902
0.164667618783664 0.278811041970417 0.525327811094317
0.191668847389378 0.483346500179516 0.521420526731003
0.174151926545118 0.223370355894865 0.517054541077116
0.014790305083502 -0.061592466839459 0.526699181226681
-0.313994699425481 0.025513783000507 0.530160664125499
0.277664778902055 0.244793576139674 0.524794896515475
0.097857358822774 -0.044147507162191 0.518615710633896
0.250297603528399 0.383534804794769 0.529200137573251
0.354497186845336 0.255015766643039 0.532803558236604
0.123445024934605 -0.005136474409863 0.522742983833640
-0.380564487311001 -0.095641410660638 0.530612311790128
-0.132576362865135 0.213236892603034 0.528876402533295
0.061842122213539 -0.092811507261558 0.515737272208072
-0.237918142209975 0.029284896306933 0.524491457349310
-0.291412527366137 -0.100701986133069 0.538355527895124
-0.110954525294733 0.320031501916646 0.521444862813705
-0.349313336393374 0.100833781351099 0.526082227309248
-0.032050253337183 0.484162411995818 0.526200717243380
0.005647870468962 -0.020441314021639 0.518742977550376
-0.188818321521232 0.156435793237592 0.527140479453595
0.013261955929349 0.001640571112330 0.525250129114758
0.016105525540381 0.444806106401042 0.525572146744779
-0.004251191111610 0.260348455641670 0.519720341216903
-0.157584874288591 0.004973978711066 0.526450063536250
-0.321526781215950 0.103669833604047 0.524221328232405
-0.346902641913512 0.183083738140431 0.529317776010195
-0.259870923944065 0.192344503869520 0.529811202040209
-0.454430203992021 0.485260795155420 0.530018478913109
-0.364591124689974 0.122023510647721 0.531001247117582
-0.230715180212285 -0.087751569220724 0.529046229620066
-0.320351130067784 -0.017366388974251 0.531761005559014
-0.164211599373731 0.349188580917643 0.522831151412325
-0.129457392735259 0.461504554314313 0.523823344773365
0.028863597125480 0.461730885291596 0.521222076663654
-0.246886514667755 0.280153914854762 0.528646038519114
-0.182178239027003 -0.119952303896026 0.525634413982524
-0.381131957280316 0.090230355433732 0.525242080391876
0.051092039409705 0.464467403862890 0.525269269668534
-0.356245086462305 0.252518162422976 0.528145349529993
0.356298364101857 0.287542151663267 0.529823473770970
0.133869471321383 -0.028398954415853 0.518710176901594
0.417121721374295 0.465926448482408 0.530092503239635
-0.373847917670779 0.135584526259428 0.530569189076727
0.226596223924830 0.442778370872918 0.521262839041426
0.108214218574098 0.234825717623836 0.524584757593641
0.128064064031958 0.301008935521464 0.529185391390843
-0.046693231354845 0.471202134108509 0.520049969606805
-0.021296752576672 0.212211212888826 0.525254299005087
0.142375080148148 0.068071639498272 0.521556246773682
0.372570218155302 0.154789174770560 0.535346903314958
-0.073180012982492 0.137081315261559 0.526094370211511
-0.119595517227070 0.350500643249844 0.521844517235962
-0.440891036740197 0.367362397341951 0.526912647310345
-0.286565718694022 0.224461025938790 0.529905923273088
-0.103707524585042 0.471927391010973 0.526979429111258
0.413161566655910 0.457336404127929 0.527789303728331
-0.350814230473696 0.480352781313227 0.529683545745177
0.327915821354574 0.045695636753037 0.527814548657363
-0.457738968441943 0.070630239135010 0.523705496056041
0.073386294702104 0.321843318002593 0.520770373679598
0.077280016211701 0.387728324790154 0.529738795943491
0.360363267440806 0.389784555219733 0.533222310399880
0.173422542883301 0.159719748836917 0.516060113292179
0.244093624073398 0.276510563748085 0.537100611341313
-0.322539230622526 0.360941350631917 0.522591988198401
-0.221461936415554 0.085461645086235 0.528201027735835
0.301441531028921 0.436537107698340 0.524590940374546
-0.087806699100450 0.197749578475971 0.524037624284223
-0.270874311232163 0.290696379929925 0.524847800175213
0.218466336418444 0.280840868988849 0.530450063050702
0.408669746418594 0.069613417039711 0.529728359695207
-0.447699534587674 0.395986156534717 0.531414882363851
-0.360398815659397 0.375838379066722 0.528071049917368
0.095242177123620 -0.058207232735109 0.523292420049342
0.236582661331211 0.476767611588107 0.529573977416335
0.031761239005882 0.124086132010798 0.528043898944086
-0.461289951808355 0.263486344400971 0.519546206101835
-0.242456806115476 -0.143114215003709 0.533141691023697
-0.239859465817227 -0.075173030178452 0.524301976696336
0.286404005634712 0.301724506751212 0.529078230658184
-0.063719666810117 0.329769265183078 0.519214317943168
0.131363291355738 0.256784192853602 0.522485345914695
0.040058347189220 0.371128838538075 0.527495671861994
0.248860870160734 0.137616639456542 0.524727947369576
0.311800141539575 0.393639196383494 0.533452803808949
0.425373011916408 0.299620036417365 0.532334791966906
0.274613959088712 -0.089766955648648 0.531803931450687
-0.187788043729772 0.405883060573083 0.523965635926976
0.003340729650238 0.083481542330896 0.530345489749049
-0.153392495398207 0.431766079340046 0.528503165519411
0.282080928807235 0.010881050447126 0.527319534553969
-0.225077944403436 0.293595140445915 0.519128710773795
0.214688234081260 -0.097496398936250 0.525767642114391
0.035227477375121 0.174734102632537 0.521865027566754
-0.328111688031416 0.443345947033555 0.523427425235727
-0.362337359474764 0.051052916703314 0.530917757722447
-0.324756908326730 -0.015402879684144 0.533357751944642
0.174897810527837 -0.132283463126281 0.515119779000467
0.283015532970039 -0.062780186003922 0.530185646814111
-0.152758076066055 0.392859666243977 0.522419217932861
-0.216239294592138 0.068936934573711 0.525760180381970
0.200965982415346 0.013875341272113 0.528306390454041
0.227956064654357 -0.094208010733172 0.528791547449263
0.030875244882547 0.090319109904719 0.529906413008595
-0.354213669088016 0.181828408243437 0.526873929825065
-0.306370758703749 0.263102456060110 0.521561234608475
0.213568172581648 0.009773968589277 0.527936155301915
-0.466416691025584 0.365595319754691 0.524038856637598
0.103282770976873 0.429342940536330 0.522291455884646
-0.209585959887093 -0.088112212320415 0.529929896695823
0.147511939579262 0.261605267006593 0.522351831185906
0.136932198374555 0.200438687681987 0.518157376179027
0.333867066843117 0.422329173208129 0.531628276510444
-0.262276864474810 0.083898077435086 0.522822029972162
0.137722258909965 -0.007438754167694 0.520137128446953
0.056882190228973 0.262542605305615 0.526282814067566
-0.394813826089060 0.299003935982084 0.527603702798712
-0.219906579866179 0.453876380957332 0.525840926148904
-0.275171819619625 0.044737222111229 0.534941197866569
0.384216349525469 0.115270000357197 0.535580370140100
0.008490811457919 0.175335247291641 0.523386520475198
0.058259214388570 0.253677146238645 0.528176457940914
-0.379857906974997 0.011470326535336 0.534069055504249
-0.373364918192284 -0.092832139336081 0.525684862269723
0.100009072128560 -0.143413175913103 0.524145378544723
-0.202962770455683 0.197865078999817 0.526471525289945
-0.419352674686337 -0.034697414564228 0.532415062808185
0.190225513873349 -0.104461356072239 0.524201909519695
0.062875503092626 0.341674531724648 0.523397189679592
0.226227295828959 0.226239864807791 0.529197855257909
-0.029759625586608 0.081950349032063 0.525549171619813
-0.155294253166282 -0.072530117417988 0.525885714912900
-0.109890856761764 0.392992419022429 0.520703570091802
0.343061431396307 0.367419525350720 0.528839882748516
-0.117251432421805 0.102530436119699 0.531631969431640
-0.130675757506680 0.403059495454497 0.526625584194828
0.212642572578732 0.311566976450302 0.525750423697087
-0.021238104349530 0.224117464934874 0.523624722302772
-0.359910172263272 0.104778282633016 0.523085732423819
-0.434403518340968 -0.050628273028218 0.532149704817325
-0.048536185195701 0.427442589232952 0.524028882293395
0.284636263915636 -0.040931636635212 0.528022801039475
-0.053979552372266 0.004983375444490 0.521690745780298
-0.069345757046594 0.234339962120961 0.525740684438739
0.000864036546615 0.398775010189757 0.529326595719856
-0.305679741942653 0.226101862278703 0.527823211636921
-0.242446316229157 0.191944689333087 0.527572628353442
-0.363295216999458 0.063110109449413 0.534606347465988
0.048966894890478 -0.091623616657823 0.519975127491574
0.378244466538709 -0.025141873762694 0.530369371108763
0.249982503223922 0.234257869711142 0.527187041182921
-0.192478051785327 0.210574393174647 0.530481027677879
0.077415642208664 0.115567536429502 0.516925924370850
0.391673429500403 0.078129033375920 0.531275724719958
0.308347796417117 -0.064352262283571 0.526354102168260
-0.172867784621571 0.221837393160317 0.525418896197951
0.042949334267405 0.305822905354945 0.524433788664418
-0.062841755806568 0.482177275931010 0.525813946629570
-0.075654237059983 0.149154662579072 0.526352373617263
0.320935940349988 0.126085022471002 0.525995984459612
0.369588198427170 0.152591550214109 0.539308270759191
-0.227595860541913 0.431156068210338 0.523412374343883
0.265099900127567 0.084760780010634 0.527650498384165
0.032896396873689 0.238638157939863 0.527567976598301
-0.324830110786616 0.404648087130472 0.522612952207073
-0.246430863227856 -0.136841183160860 0.534909088967111
-0.314795576611011 0.143577620824689 0.525773466363567
-0.407476603866291 0.294854110687968 0.524863263494970
-0.368183804387657 0.254503977932856 0.530674052523467
0.069421157980553 0.258762278851339 0.525898571133320
0.307277640444903 0.132919934185676 0.531723586367908
0.404184359083879 0.340270226360785 0.533707436403762
-0.167886968196862 0.489501063719619 0.529915138175401
-0.172647743689579 -0.136695462880622 0.526850407426694
-0.288070826615454 -0.143875117194291 0.532009457742927
-0.340868479479583 0.145836760271725 0.528085901508458
-0.093502144413715 0.432002816481497 0.515935066738725
-0.195247501480137 0.010863129865183 0.525438354795041
-0.092578090018053 -0.106391519641886 0.518405460424779
-0.433920949529081 0.169670120483231 0.534216137230255
-0.452364369733495 0.451885390823537 0.525877277836101
0.401659384766139 0.131038029986046 0.533099613395391
-0.375388936731214 0.071343388312110 0.527310915784741
-0.367982634126699 0.018617953809003 0.535774582892615
-0.205417857647117 0.140011650789678 0.522346019646401
-0.155119898611573 0.322329314544347 0.524480881278488
-0.366652147598056 0.479853870930793 0.522745757274298
-0.151064304794009 0.138330295128345 0.532054095443084
0.312748501805911 0.261618267298066 0.537156956489477
-0.107719748938374 0.419976846450679 0.524380246961286
0.018968848027613 -0.074322804189750 0.528853025644409
-0.310396336383878 -0.122886336534409 0.531250825765185
-0.419442594842843 0.170318755738173 0.537919144442482
0.383205851212899 0.389481445884188 0.529349497767743
0.199060839909578 0.234328336494852 0.525886066589896
-0.176912706058351 0.010402200351805 0.531597413842385
0.312782179480404 0.459420432998524 0.524742446503882
0.286038117225123 0.204703810407577 0.530372845148639
-0.377848671065477 0.049072327338426 0.525464203615553
0.377379805360810 0.185619252635090 0.527784529261428
0.065561802485603 0.095525396186291 0.525426689399333
-0.387182256777826 0.215269549706887 0.527062269697666
-0.357285457271414 0.318896732041361 0.527014275381446
0.417677262764350 0.102669427115599 0.532082570609812
-0.248185485732685 0.377662305032976 0.524420529704567
-0.422812236810216 0.431094584873261 0.531437372091854
-0.193848832277660 0.418944558614278 0.525410538859956
-0.267464907601779 0.162789633758371 0.532023213425220
-0.073677292668373 0.056772951023192 0.526296293735119
0.045504873196380 0.133612846178306 0.530195892627036
0.329426839250935 0.388761558532888 0.532528606313387
-0.285157058358115 0.477371386646278 0.527598542634795
-0.064133462921749 0.293590549808856 0.518033550018697
-0.058673395709302 -0.042903765981684 0.525562160190621
0.159394364014198 0.040838848821093 0.522902733854696
0.320720416289345 0.211930585915280 0.532693016891653
0.180987112869322 0.149023918306683 0.525362941074132
0.284507625739889 0.357524094751753 0.528588613007770
-0.098275877931276 -0.104959985435576 0.525162235714831
0.233959096019086 0.201243593763478 0.526481310180557
-0.011751560882423 0.440945713866299 0.519406957548639
-0.262567948749388 -0.098055036706408 0.533408141959985
-0.109542718703751 0.403317984274357 0.524675204859271
0.160512549708820 0.269069842813699 0.525372292268189
0.101617327235690 -0.124189825066869 0.515715778340255
0.165012051592462 0.443043355118947 0.519761042539240
-0.350473366498965 0.443356678665000 0.526635866921537
0.331989505904479 0.325603134612571 0.544315777741028
0.017254143127045 0.488395205031031 0.521132978304977
-0.234188661698595 0.355709117158240 0.525701215639528
0.019230176708913 0.233395051020865 0.519708545180509
0.039437931953248 0.374888702058636 0.529902009323443
0.263639468820188 0.027692407920361 0.527516372109751
0.156772904981538 0.244884153450004 0.525796842994634
0.200938590699407 0.105305677527114 0.521652520124503
0.235105634466388 -0.075627720896305 0.524975564619597
0.010888665557487 0.344501701521492 0.521387703946739
0.277113336745887 0.134298659354266 0.528947247392206
0.169968124873478 0.291005676218102 0.528500737550279
0.039809498691021 -0.110621480300176 0.518196610903361
-0.182876288197696 0.284039413717727 0.527857175744034
-0.017636523281004 0.485319132614923 0.518069893556210
0.305259143357610 0.023683215680500 0.522774754095202
-0.244260277358932 -0.138535557871009 0.534251988256161
0.177099443271367 -0.123175508180475 0.526943751830293
0.075754972045293 0.028957296195698 0.522230871499673
0.238424386756045 0.304286435867768 0.539089334894293
-0.264372589453300 0.472142034418312 0.527650060193235
0.036959164423095 0.285215490226141 0.528967471949672
-0.388658005932264 0.163080952628163 0.530660602406636
-0.112858495521627 0.022412121941272 0.521874588031405
-0.003785127007501 0.438472496731092 0.525534302227190
0.150119349132383 0.282903706742776 0.522064378718988
-0.288801038468394 0.435319999096760 0.527195332524830
-0.035691200304653 -0.064974513708317 0.521995003823547
-0.145238401481584 0.152467612252558 0.535286404797384
-0.099409660502773 0.357484949804288 0.522158029653343
-0.026603124762551 -0.046351120172054 0.528668206095528
