ply
format ascii 1.0
element vertex 874
property double x
property double y
property double z
end_header
0.266480366988107 0.211511346991167 0.524852907683535
-0.321445549954794 0.256724388001836 0.531455854550356
0.037600697731151 0.399352140516751 0.525210809975553
-0.269247931821905 -0.114659950862447 0.527636916162330
0.248834404656170 -0.094694439136670 0.525381834492941
-0.362295157449999 0.479458182957269 0.529073338512234
0.288313942022243 0.238148430930264 0.530128850078858
-0.188731549642520 -0.085640914283127 0.524319743799329
-0.310485364589279 0.262266035789938 0.533151009817762
-0.378358078100243 0.082348234333850 0.529862820804299
0.435547827615828 0.118632346025188 0.538131907479997
0.408092549810678 0.279413257247143 0.524605655304674
-0.372461945074420 -0.068022943000244 0.533488891711316
0.121801029000463 0.007508999828628 0.523498344728396
-0.186809236440311 -0.074035073592424 0.529733747011291
0.032161606529356 0.371133253571574 0.523124120698783
0.193933022076596 0.385824433611671 0.525814895222301
0.187264591560085 0.473432539907189 0.522623058586131
-0.159070824851741 0.117876363803246 0.535598789603296
-0.380802766506939 0.357509805898908 0.524891542663043
-0.317746833250343 0.406076859907171 0.528059376841811
-0.095237131279480 0.362186231502536 0.520729387249325
-0.437184511014916 0.382873117725615 0.527207376213002
-0.038470859549892 0.043699284780865 0.523164784517876
-0.337316216761358 -0.003438736361356 0.529078741867569
0.388983496141301 0.259303448601931 0.523603034888978
0.284818966095977 -0.052835230714168 0.532690666844264
0.129917654633482 0.335369811701173 0.526485399346182
0.044309398523653 0.468712547975409 0.520274574138955
0.369174155013623 0.432248594413196 0.537663211716802
0.008373996893609 0.350243970986793 0.528468216575761
0.271233964153601 0.167649540936818 0.529269862498089
0.242992788977145 0.160709609837637 0.523759334460022
-0.414129466017196 -0.102085926961881 0.526885995243124
-0.302441920803489 0.089051166107234 0.525163383649939
-0.433307859613168 0.049169570930303 0.530486712881655
-0.248729355811602 0.324383613873807 0.520763966215461
0.213055798553778 -0.104831060426696 0.528089529806204
-0.289634061510712 -0.141715594246772 0.528111304541777
0.329939431839771 0.369854003949589 0.534184505665083
-0.219612975196640 0.031047736964536 0.529508610654961
0.013378255539777 0.009533475350159 0.526452004305747
-0.188660061641121 0.060794700880491 0.529045242835443
0.249179426223227 0.366781834406993 0.529429667436931
-0.323591817572267 -0.141336662258992 0.529183913721677
-0.085416045989469 -0.066732416955578 0.520233755255273
0.129679741303374 0.291899844239345 0.529863584323180
-0.238775598075846 0.047659209530075 0.527844056551481
-0.421804967501415 -0.117722529218983 0.528562619088280
0.006525210008607 0.230417278232534 0.522831592424475
0.092384612504771 0.215862720615561 0.523000231857229
-0.454272849227965 -0.034692013632068 0.527460376916753
-0.263774505251203 0.396847956623014 0.522107846026509
-0.467707682369356 0.303576291201840 0.521942608341822
-0.367735560800409 0.232222876939310 0.527227927899544
0.124830278116663 0.086804938402369 0.520569675698251
0.017220578129821 0.134533229198353 0.525382589993367
0.250430537386152 -0.141152855740651 0.525019502800421
0.157468190495883 -0.002826962143136 0.527938749584542
0.285699118494828 0.115872403445640 0.526869201180987
0.331697200236632 -0.060451286200146 0.519787054741098
0.068698704966521 0.005769201708133 0.520023720335316
0.057866471986254 0.226706012692648 0.529265661912037
0.413448514939849 0.187171282317837 0.532401728139363
0.099453204968422 -0.028337827199087 0.523141873045822
0.219709835037087 -0.087700007826849 0.525838744091629
-0.270172362058051 -0.004966586780981 0.529919917229362
0.414010019267402 0.381559590086928 0.535605564422587
-0.300058184645397 -0.047249806976851 0.533853724503713
-0.056901628506126 -0.104780891563379 0.524366167035737
-0.176095548122912 0.084182715042553 0.531263341257982
0.296555933533973 0.037779946509594 0.528596652987124
0.170356912122320 0.065496331504342 0.521244043570554
-0.141920653178183 0.223537707662970 0.523729712607591
0.251077981547752 0.257749078411140 0.537652163117420
-0.011993115378929 0.092412720666616 0.522138846186920
0.269096161998330 0.217292739482457 0.529573180754717
0.069462997765468 0.465351454443330 0.517537226211927
0.090588221254990 0.040413256427814 0.519142251997900
-0.373935588625071 0.249675315343443 0.525318269608278
-0.162719295508081 -0.107052131599012 0.530821684341175
0.096949706527581 0.480229029128358 0.525943693633479
-0.051462712246107 0.183485616527703 0.515942647174960
-0.034559580088118 -0.128919280021668 0.517683780747941
0.286577927979139 0.193783861321915 0.525649342231723
-0.027621980836144 0.189796560393055 0.520901442648488
-0.065797551381201 0.076051031220345 0.523017814330659
-0.214215320721604 0.259889657806215 0.519551811192138
0.136921234086235 0.430963485091817 0.523765991947284
-0.049556939330964 0.078829682216534 0.524465767123023
-0.203280385371943 0.459654214769622 0.522329102188216
0.433951367332716 0.118009714607896 0.536284011873722
-0.036801438401233 0.076637749476347 0.517492112951999
-0.159632760659179 0.138531627843961 0.534080182144628
0.122934634024137 0.282651934007597 0.524789562232385
-0.323212683917544 0.380845885197535 0.520814447617215
-0.377561540399836 0.447253144088201 0.527989142179917
0.068034696695125 0.018798537407195 0.522054997968403
-0.048271584866753 0.310997473282080 0.524016749993298
0.259616668113634 -0.048049005566343 0.523037306555795
-0.467654642991426 -0.055201555832355 0.530680763264992
0.094863897558685 0.265412864558456 0.516869648232278
0.082788434427014 0.467913707950538 0.523694206203410
0.358832904516791 0.089310735155907 0.538520351820930
0.239020131257537 0.428761074476707 0.524091460332199
-0.423109037808990 0.283832238311903 0.517645217837154
0.278165622499590 0.338627895213972 0.528538527731147
-0.061989141646663 -0.089818906557039 0.519830970743877
-0.233803617054275 0.462335984617874 0.525840419812523
0.222662388775983 0.252049151268340 0.529082436367258
0.298693689378370 0.029047770412844 0.528945074157781
-0.296829941774576 0.013117341851644 0.533225117993284
-0.449880573618336 0.458661339457773 0.529335071476185
0.374179505948005 -0.126145438193699 0.528821963836007
-0.185697262387268 -0.077117656545886 0.520865689586100
-0.076798162373425 0.059150970998605 0.523112052653368
0.159454847332513 0.447848963003423 0.522272216610664
0.423114084269887 0.153964604235866 0.533900963207559
0.147054722721095 0.170864809883169 0.524275446572399
-0.030048144414057 0.078656384315231 0.522106862716953
-0.005573276651515 -0.083463122400312 0.520339736942529
-0.203440013267415 -0.122158249015694 0.526657482466868
0.033179691596579 -0.069045197408424 0.527953285811967
-0.327037906805102 0.014049587855966 0.527123495917240
-0.442525518283031 0.160189970832326 0.538652007301708
0.232490682991786 0.283828567346558 0.538226356009375
0.048776966268060 0.457529715099279 0.523897717796063
0.357037806981475 -0.028238563748518 0.524063335777940
-0.150619358813828 0.356001701966365 0.523829985948031
-0.467687745060685 0.259661672732582 0.528657789995349
-0.455672022699829 0.249947350815878 0.528618103832624
-0.111707762625954 0.430535216370158 0.522035030243222
-0.097051632772073 0.456445816733067 0.528331258412611
0.062295697574349 0.018174389312234 0.523862234050339
-0.037076689041210 -0.132099107860244 0.524799183440112
0.428912916756811 0.067600326398067 0.533594157794554
-0.186432180076742 0.431451121562009 0.518267307175512
0.084114586987699 0.107692476139148 0.521209913834842
0.257509803798303 -0.055174451476677 0.522921069333352
0.180902857910772 0.317079882946758 0.521090109299390
-0.129860732018462 -0.000561137408798 0.524315928375884
-0.309658936284713 0.233292329676464 0.527386679487310
-0.340818206560114 0.020798637621477 0.531434058264666
-0.258524239989908 0.305191910468564 0.522204754370366
-0.166351566545557 0.068682700465016 0.525930797055484
-0.132672498934021 -0.072061442483614 0.527563876833228
0.271944224704787 -0.058609482845922 0.534872143236448
-0.395052156027509 0.133441408652155 0.531157366592544
0.209430915910725 0.138055273465020 0.519883250231359
0.189405469974397 0.473072008751725 0.524824465710216
0.052061106295519 0.103014797641905 0.533332036185600
-0.055643198006872 0.053387202703553 0.516206538437298
0.256959866171554 0.440101879078016 0.526514280652325
0.258977079326903 0.007600543765338 0.529007474779351
-0.450028411448591 -0.068730717765819 0.530135470687793
-0.372880188064218 0.182067035603267 0.532566431788103
0.255645195569346 0.445007360340269 0.526291137553688
-0.444447395730314 0.445962580458653 0.528902461909598
-0.010608436360638 0.116467029194056 0.526597724719309
-0.242230397388613 0.118066839309177 0.521691016665568
-0.396971285968884 -0.022106177556343 0.523954165514958
-0.261891291799821 0.189578229797832 0.526148329058085
0.243514605746384 0.056613971991887 0.521684741572983
0.106896982854514 -0.040207039593304 0.523375528742519
-0.308299778339872 -0.087599579680545 0.535902902299752
-0.114057383990179 0.024764525407560 0.526600018804874
-0.371910669406137 0.441645658349375 0.528322626502568
-0.176892959765355 0.192866238306952 0.529884700270961
-0.338325855114730 0.447615755317190 0.520701963517734
0.194056630265192 -0.089243820523842 0.527627909425143
0.084823139678637 0.191635500178004 0.524316713460100
-0.319597474017483 0.341556348218350 0.522175227321555
0.056490116831378 -0.083213108817716 0.522458103847390
0.332719182390711 -0.113870573143563 0.525563801246943
0.080428067510170 0.087288758431721 0.523921252795840
-0.430921287418460 0.197739967048657 0.533161308865470
0.163439549683071 0.451432508951508 0.525608703967560
-0.389914467524813 0.292972111601140 0.521041215579841
-0.229492620853162 -0.140648221891375 0.530579490783744
-0.457124927263764 0.450179373489070 0.529242941349640
-0.171435758933005 0.110063661768110 0.530257047455141
0.363293139738746 0.344855098536997 0.531070580861836
0.026288321117483 0.171942787255875 0.527410264550996
-0.295852909872009 0.089004573704240 0.526135559116988
-0.276299449429863 0.200744040225418 0.532699897676506
0.311821361362846 0.248780710023758 0.531156689088469
0.148848499315554 0.190281592418140 0.524856924710532
-0.155382315608794 0.203088767546139 0.523683752491367
0.376404617146408 -0.110857866300232 0.529433819575285
-0.095791976912950 0.122602672978360 0.522299843005982
-0.234391006276912 -0.031468947723978 0.531738700996186
-0.434215771304585 0.307367327248931 0.523738899348724
0.310906626321327 0.331109098600386 0.532874258000220
-0.364954820083743 0.052991419289091 0.522913720884180
-0.402407696431482 0.318449538007332 0.525206124886889
-0.460683006608656 -0.073698947030541 0.535622871885151
0.145503053971527 0.413951489198885 0.531020681642698
0.357447473037787 -0.078347355926965 0.524297145289496
-0.252531718606568 -0.011361021046827 0.521821309981618
0.234102896353212 -0.025832615795179 0.520873158097701
-0.461367566993188 -0.035924448847892 0.529199066003305
0.006275817812586 0.378440232629471 0.523348469246379
0.318083235173556 0.009288685280501 0.520886184593805
0.258554618752275 -0.103505577031727 0.526197339228321
0.091815039888183 0.087430110126437 0.523626579805789
0.143546132207784 0.180944798575049 0.522846253114908
0.326379659511815 0.270664694188305 0.528430668281460
-0.374810876827406 0.001721906644118 0.524952203763863
-0.381570965111783 -0.126282622778952 0.528303791137610
0.429406638142741 -0.090111156590275 0.529720884731205
0.225620445985868 0.361898053934425 0.529193547624534
-0.162824396586904 0.086472342214063 0.529145261019003
0.231371362020114 0.249514723397689 0.533933097725571
0.311181687162871 0.089593206278064 0.526654807345018
0.411214466762268 0.467104677611114 0.523600448981800
-0.188042330058337 0.022897908588794 0.527334727263457
-0.142695343012887 0.399644069800442 0.517966941752012
-0.470002074540745 0.031571888387894 0.524206852399096
0.091943746976156 0.156852189619848 0.520897879747176
-0.331270765069509 0.092363372441700 0.530820830376150
-0.103345608211408 0.013319570400582 0.526335022707732
0.356545520843009 0.336539780164486 0.533082489079862
-0.060684083506877 0.064579364338432 0.516809732846976
-0.125842601059818 0.274111078703111 0.525063208596350
-0.456623777627920 0.324386865458925 0.532332552493012
-0.467285493262989 0.267342230157004 0.531957442863498
-0.195430725521071 -0.040612664250850 0.525041132490799
-0.120992696942024 0.141088915809298 0.529969546331150
-0.318672004030693 0.201029315840817 0.533801285638690
0.347614001807217 0.123292713483327 0.531550777106507
0.382719664969566 -0.133833203736824 0.529003298792545
-0.327533705671377 0.279267858679762 0.521654371955675
0.364545057153910 -0.101110445370839 0.526930519210946
-0.033234356840184 -0.017550705286839 0.529158321160221
0.041527957682057 0.486837008929250 0.523693450435006
-0.153053269368110 0.152701124772955 0.534145277160959
-0.036530964553851 0.455199456415731 0.523279236377305
-0.414772588814231 -0.103276798799801 0.528855079506456
0.399855465320046 0.030051214322221 0.531203771405720
0.068408508522741 0.239457509291297 0.525297850837315
0.084922503732693 0.217146760785433 0.525303382177002
0.196218336774989 0.188392534561723 0.519860392409419
0.421911921132379 0.199012559561648 0.537438348158199
0.233868529522841 0.382611354246297 0.530103832269868
-0.212058234603575 0.366421625399300 0.522471303923185
0.195104848267944 0.243511657981056 0.530720694210981
-0.154232234804890 -0.033331087848272 0.532446210790324
-0.232091001844079 -0.082930956192322 0.532606268936598
0.366810730605215 0.131962665760666 0.540425447458178
-0.232693312577702 0.320926707414834 0.526293132879681
0.382100740214140 0.348236342844967 0.536573409782856
-0.231689077636358 0.279007712029765 0.520215352184669
0.324468583405341 0.307481874294990 0.533949437787845
0.345114629082050 0.471812166610584 0.527407927486470
-0.343843160638562 -0.141574536468379 0.534071043586636
0.055680165191709 0.461334537432051 0.524313917213326
-0.338676165425223 0.326173537167575 0.529325187826545
0.376130782508769 -0.092933352934981 0.521858529727898
-0.413830223840820 -0.105852115766931 0.526863013176343
-0.388312041755107 0.022354723998512 0.529506547129813
0.405873419975952 0.447969528290149 0.527504573680172
-0.402804587622905 0.295496569506043 0.525234044691879
-0.189305495486874 0.163257351458776 0.530432967292114
-0.443196347903303 0.267624747572279 0.525421387320280
0.423061635428461 -0.100671040688304 0.537925897579948
0.119937286817074 0.388734933473990 0.533304593804622
0.158672081121142 -0.012643573034674 0.520637564557328
-0.379395295629266 0.275507894031649 0.523883534971542
-0.454488006329119 -0.103734202751430 0.528478715206162
-0.454347185456046 0.269524103233341 0.529566818692939
-0.151927666327140 0.154399180164643 0.527698373301424
0.175574133192580 -0.120838699776944 0.524168387489175
0.244779598065971 -0.077082884115508 0.525079858450464
0.061357443033442 0.465350604491597 0.523984563549790
-0.085616732215540 0.405314421391390 0.525152096465819
-0.371061746889895 0.366375578786040 0.527814680556785
0.148320451672704 0.064951638794667 0.524000609060679
-0.453412169006776 0.462370820739825 0.526964144243940
-0.398747246846567 0.302360870251659 0.522189151097706
-0.195347772353095 0.171602676747731 0.528346253945618
0.169148122114177 0.398189737497555 0.522682824114816
0.048564622385691 0.224749538797075 0.523874417300897
0.175572395850073 0.051281591755853 0.526632343955673
-0.095724247876686 0.269020149998622 0.525279820199336
-0.241678840778295 -0.018452378122466 0.535183306817415
-0.025237816001447 0.443278090977471 0.523158576068498
0.364226999026466 0.091983135244454 0.536008777549802
0.243452284772477 0.033000320356957 0.523825722038357
0.071262290192952 0.369033663821662 0.527000815241750
-0.412759999246941 -0.038187147521699 0.526972743413321
0.285239598413223 0.405882856688222 0.530359021943250
-0.256164138767475 -0.027906370267389 0.524154340204622
0.024879516125434 0.084646452727858 0.519672280806846
0.050793673210399 0.191767375938852 0.529629176407771
0.180006362267161 0.126515603703526 0.514126356752267
0.244218579986396 0.342359199694773 0.529329949767095
0.336552106140545 -0.129591808673384 0.518888925717979
0.326986147664551 0.105451752354613 0.532790586962552
0.264464192490508 -0.110736735129038 0.520470817194637
0.327416571570053 0.416506824354143 0.526200081781664
0.123540244615626 0.198152740052323 0.517300685494498
0.219572614292924 -0.085778668487092 0.525256093112542
-0.040136450227465 0.014135094476185 0.526708005066914
-0.170647273765204 0.429739062489236 0.522210123297269
-0.248813604630038 0.111482644208958 0.531369064081906
-0.302831061644648 -0.109927160440706 0.536511365893703
-0.246462168859636 0.262208308973667 0.523500142403823
0.412982672576149 0.326502004653637 0.532163203225079
-0.042887579783365 -0.100454813612427 0.519157274134546
0.058831979940835 0.395114873277738 0.525526598487821
0.020317752072298 -0.068076623004194 0.523550796950630
-0.026325067620221 0.343629807461997 0.517485703519536
0.114292973589825 0.352664165352277 0.532370975169272
0.337244529357663 0.011038635843849 0.526173617880251
0.427510557928859 0.367226862434352 0.530316534280533
0.187553703997453 0.228613678921245 0.520268253268712
0.219565307143842 -0.070331397698314 0.519443408773259
-0.159288691222898 0.249319424091821 0.529034062717976
0.418337943542278 -0.078721520925268 0.525960947438651
-0.248139212297483 0.457045513218878 0.523982167649652
-0.336772312919641 0.238223678348726 0.528888729072568
0.015126065473489 0.305282801598275 0.525520723878321
0.306794664231498 0.340083489640556 0.532973171081212
0.104390775013698 -0.029872659085534 0.525393908413340
0.286005998939888 0.141527716017619 0.524743524308257
-0.127907063736746 -0.084278384715740 0.530417663080422
-0.022709588911493 0.312786341188389 0.518113414920369
-0.214348778890611 0.089783064359531 0.522598257983021
-0.155256517630546 0.447643764312139 0.516780665986755
0.411424828491024 0.079638159975521 0.527501134998387
0.224720382019057 0.459802248542552 0.527085334961048
0.308168733528700 0.214811112329959 0.530934981242526
0.216954311366291 -0.038831663347304 0.524456694748418
-0.291648748262091 0.196521718803594 0.535516057043072
0.292899160247944 -0.103466029107280 0.517057257959138
-0.257517556951801 -0.028650445819325 0.521051767243562
-0.114474663412274 0.201153336802957 0.528334693724754
0.174385330342711 0.359983187056505 0.524664623120391
-0.166804421700029 0.251240606516860 0.523708378845099
-0.353342292478492 0.056658055298382 0.523502507253958
0.395800406862303 0.104368186203087 0.535992519744270
-0.215774442259409 0.316808792374107 0.522262029220888
0.231038290649918 0.095809835258258 0.523742286465476
-0.040282961378476 0.380932083697580 0.521022219682198
0.065604825697741 0.226070898268148 0.522159716539193
-0.028340752638689 0.364357852557527 0.526233411901298
-0.336750624737634 0.314898337547832 0.527776535732439
0.094244659027684 0.307810763539515 0.527049499196293
0.314636042066942 0.197865158981766 0.528532888121623
-0.092878706890669 0.340219632563407 0.516884671779715
-0.327906947189979 0.381631553770615 0.521531959653368
0.315339854028146 0.335435545743523 0.533326307600821
-0.241916967829209 0.208215570620234 0.528547678290080
-0.390439868457089 0.190069790505367 0.531087389977488
0.054466899611361 -0.124731254172642 0.525197805592795
-0.052417701279292 0.196716552532254 0.527739981974707
-0.094703527680179 0.028533214232158 0.520567982781239
-0.432590773341871 0.350585475063913 0.523693561159685
0.131260685939502 0.135691043598733 0.520197730141872
-0.397949547774956 0.388748662266503 0.531782070583838
-0.266287997645647 0.028447919886371 0.524359553387282
-0.402441469277995 0.188969597429322 0.533279644754815
0.316035677774078 0.033683518416786 0.523731659149276
0.110611303954515 0.068191409925789 0.521348917732223
-0.367095932285174 0.233956843915499 0.528868768909646
-0.333048095853421 0.315681368431498 0.528223978723044
-0.049255806474394 -0.070381820644463 0.523564220273595
0.228753042761584 0.383972073264520 0.529663330897670
-0.153488355724176 0.187456702357549 0.524348753861427
0.363590699126131 -0.029135129876734 0.525974163990455
-0.355658766115910 0.126328720273954 0.523934170150531
0.376701727070273 0.255289065720750 0.524613086013342
-0.117440706153865 0.164090257820004 0.528985528483242
-0.211397188756018 0.284352646661831 0.523603233530229
-0.351602111764487 -0.028014491098097 0.531500813174463
-0.308631779144967 -0.062553095213365 0.535522502854998
0.124286345328048 0.273252639371657 0.525273803778867
0.212247460579900 0.363065708910009 0.531408683895707
0.358592446726303 0.331982464662007 0.534005079427353
0.333030509618952 0.030381518920409 0.520684420349207
0.072266220260611 0.328868055355379 0.524281388410437
0.310597403174563 -0.149775194075030 0.524833434699533
0.278383759538473 0.067454457285192 0.525168536465595
-0.048820568764045 0.201968249311465 0.527612728527783
-0.013433482881195 -0.069977892667037 0.524822083866654
-0.159937953970553 0.451169023598490 0.524918924016743
-0.106606427803893 -0.014213590339816 0.520480292753823
0.026672561441785 0.051317181385851 0.521997080747363
0.056282421745969 -0.073490378093186 0.525268720837549
0.159444276071892 0.020064597587543 0.522903348344715
0.263303899106298 0.436713589930012 0.525022936190658
0.252886920785118 0.137382615570282 0.526513309741402
0.303473071676596 0.435952071135327 0.526585246857000
0.383829831954027 0.479985011570388 0.532184014076084
0.232809363493904 -0.001907894818470 0.522806232926243
0.201996141642860 0.438231406373391 0.526063631296095
0.174561520635688 -0.060175896311301 0.519096081998469
-0.145217884171561 0.164527579747338 0.530029875228932
-0.450134211960487 0.151798777928950 0.540726699577032
-0.190398364293489 0.114077465816424 0.531761397185925
0.078846190780526 0.119606177223601 0.527086714278114
-0.118298814354601 0.345689501229007 0.526341207344876
0.272086128365583 0.243546497758820 0.533179327266090
0.121786748986069 -0.005866389557608 0.525905604322767
0.415594635357249 0.440856141898147 0.530061592355946
-0.306950445649939 -0.007091214385455 0.526352992115446
0.355510841955610 -0.040827195501033 0.523658007313234
-0.222757941467090 -0.115122724279819 0.529921969674684
0.224488738223173 -0.069754396299308 0.529315261698249
-0.025439026405262 0.155653133722177 0.526326484162327
-0.403597236385099 0.273046875111035 0.530253880532062
0.198591230973117 0.150368345563111 0.520654432939798
0.224084185482945 0.251227291870353 0.527255173423456
-0.020623834264363 0.190723581617109 0.525088614658650
0.254543174054751 0.208578883981360 0.525317092342505
0.327541466200650 -0.133879615000236 0.527326816138391
0.042731676610143 0.441304564967366 0.524640963441680
0.296137138062477 0.048418081621753 0.525045609180829
0.184679469010924 0.063390653965417 0.521206621563692
-0.187887273532256 0.382326228149021 0.522336991632590
0.372239812032392 0.048534380402502 0.527000704202220
0.220614351274418 0.374674919771151 0.532978592347842
-0.410515002912151 0.375999972928392 0.525283900446425
0.382753833744782 0.419403346174039 0.529512938633491
-0.289669174525656 0.160315219972439 0.529508573073192
-0.128144237588552 0.191636503169462 0.535326010273468
-0.130484937884623 -0.026007150303161 0.530254128968337
0.004650277953558 0.243666311364592 0.525821088311601
0.163968130952911 -0.033647905860373 0.528116189657552
0.260758445001413 0.163763485621850 0.524264861079457
0.362708167299878 0.340883682907606 0.532855558373543
0.211728981651311 0.199628955148568 0.522715774755306
-0.298273343888976 -0.127348826017144 0.532543876937355
0.159469831837077 0.286275537129516 0.527110188366671
0.057789832761520 0.087915517912387 0.525029847938443
0.156462288385003 0.285929962400659 0.525752573200315
0.098769168769303 0.058569318061986 0.522441605223152
-0.192270475136149 0.462783894850601 0.521131489622819
-0.030710150500364 0.436127168829664 0.521834578174232
0.387860450768768 0.465256324449062 0.530978841750592
-0.318786792123613 0.021166846869990 0.536367170456945
-0.318427200228380 0.097613586846603 0.523315629898208
-0.204917656052445 0.295729558709258 0.524991123285942
-0.018858985014539 0.051255058212297 0.521930123554715
-0.034120674864627 0.163913463587669 0.521906847260376
0.223379439645014 0.360839226387570 0.532326527843731
0.140643113118765 0.335433315400718 0.528663797673086
-0.214017208773471 -0.037574309451927 0.528487743388975
-0.441912975623094 0.160013777421942 0.532380880396693
-0.373667442204884 0.064335359846960 0.529824247269012
-0.177419714623065 0.218895336390723 0.527303977817757
-0.071857864601539 0.201217635618919 0.523284395260062
0.269427564227013 0.470805438295918 0.524120049085854
0.365458725738705 0.322252775186457 0.529744833263790
0.386455678610556 0.472021857894551 0.525726914132859
0.052678535374366 0.330423693337900 0.530228190665805
-0.271731485311187 0.072705102905369 0.526595056483352
0.292120648201873 0.310829033558619 0.530784151135722
-0.459886212193661 0.117039971550034 0.530132550929129
-0.221879430586733 0.152616925045928 0.528338570302468
-0.362601085795622 0.380793082307086 0.527389133540501
0.158285682985370 0.344070963230930 0.530663765295730
0.172679723536386 0.330543094757436 0.526832502724955
0.276056298058555 0.390309848350258 0.528770563106753
0.369786248693259 0.129892886160820 0.539565921079767
0.377062788717076 0.127963210009215 0.540746444060717
0.012850539973199 0.097290921038390 0.528295901872305
-0.149021415856357 0.412851072343883 0.515469685040974
0.218661283511827 -0.043306237169052 0.527673223429780
0.249348903212042 0.275650770889967 0.529436955829545
0.380156286660000 0.109678190422228 0.538161135665040
0.204298836682243 0.106748451233727 0.524572286326551
0.247334574090832 0.480900912946207 0.518382768109492
-0.411085382571221 0.193189127391887 0.532997706264518
0.103491130688337 0.074037824671953 0.520036439064979
0.304805403507843 0.155627510296808 0.524836291152201
0.232141597886461 0.035227956077813 0.526117413906448
-0.290133939891495 0.198859947820524 0.522366764437134
-0.224811564241088 0.097033491087002 0.527018776076063
0.313347814695752 0.197193635687251 0.520791865861195
-0.119417987800735 0.261368071854106 0.523794661327266
-0.010452283791590 0.375686571866599 0.520171466993132
-0.298850176919304 -0.117175956894194 0.532174799377712
-0.084519029655261 0.036869845094992 0.524365465739394
-0.046218203850621 -0.041978285810602 0.524529975485133
-0.285193799407509 -0.000546923578871 0.527880283681010
0.349950560373705 0.435569347930265 0.530863093077665
-0.301265970458349 0.064650606474507 0.532038478468150
0.135696751411810 -0.099233209882558 0.514940028863494
-0.035583546207285 0.379547664751343 0.520383126885972
0.096172193915444 0.484770210636493 0.521470445046613
-0.453758926463769 0.126949322102564 0.535194601375336
-0.318468565610990 -0.086982374008236 0.540903666423347
-0.155063914079400 0.440752225655157 0.522154288329031
0.015174331528291 -0.106141113995265 0.518037659240023
0.290122507117268 0.045059728924098 0.525050526499048
0.171023169502604 0.294908564906638 0.534591630029928
0.421093395654205 0.194240225066440 0.532577221080273
-0.000165854524009 -0.077224183306832 0.526790158079941
-0.134651119602704 0.430387910192632 0.519589659322888
0.294678453685724 0.050002508420179 0.529168377851182
-0.028317664796643 0.109044699402006 0.524441183956398
-0.120201878239279 -0.097911480560969 0.525295662196367
-0.167016384586541 0.102416175745652 0.530446264712709
0.093052581826468 0.312210727306693 0.518978823394957
0.254664498013828 0.312371058158798 0.531929952161778
-0.459783065327868 0.022306909846119 0.531126913771195
-0.261542371220934 -0.072873251093391 0.526746861122580
-0.356719086333433 0.096746900564281 0.531953761941205
-0.231576284264903 0.208530046623099 0.529693177020187
0.052434140928670 0.299773612416713 0.528617578720819
-0.188948931523092 0.293012790806538 0.518977570358661
-0.051439628368214 -0.031911982116924 0.524273973843469
-0.008062183628473 0.083238495101821 0.524995285168183
-0.077406924199769 0.489917178998451 0.520073512207482
0.311313323133367 0.129906677718299 0.530461364059700
0.183772450763102 0.257133768316523 0.529479926618192
0.264397977331737 0.030441975170732 0.526428827211082
-0.457822488236313 0.290924147188836 0.523451433740855
-0.383424430038694 0.256751041871391 0.524873954648468
0.406971184200344 0.087863509594139 0.530686348981301
0.338096082551832 0.101967872410231 0.530710208804816
-0.405596020193253 0.234592673891344 0.524371604967162
-0.398688761397037 0.066421361163193 0.530002392234475
0.193689105371002 0.050749280029804 0.529199281134277
-0.051172665268633 0.376802827533594 0.518682426676436
-0.188993618568854 0.420267741652701 0.524325776338832
-0.042087525827461 0.179249506538720 0.523107520222090
-0.250920916046956 0.261083774904094 0.530423062127303
0.277979265292145 0.075094169742230 0.521449950192016
-0.427284528525078 0.159377108329157 0.537206306700644
-0.203474564170555 0.376822469380405 0.524028895626344
0.052944529734783 0.388379379172917 0.531575815435833
-0.063850364877649 0.335029142622434 0.524013039089638
-0.333795186155365 0.095607259640638 0.529638645507701
0.274481579300231 0.304635393719661 0.531863457613132
0.050053427826699 0.134974593787309 0.526240066486867
0.190549137625772 0.343290367017968 0.533424481324872
0.214691971841694 0.268426686266890 0.525115875316095
0.234528528864993 0.238909272059688 0.525272893456551
0.060200147942929 0.481372513942040 0.525123128336689
-0.109643399717038 0.308291726086640 0.525057369152704
-0.435401352059096 0.402418244525413 0.523231555899809
-0.116276314417680 0.415061898384795 0.520792277542658
-0.311197051900752 -0.072652457953399 0.534009614751061
-0.085654034819699 -0.114687953697321 0.528094371104741
-0.207793514447872 -0.104125492230111 0.524239724990207
-0.359877490533190 0.020088689951588 0.531371389679742
0.345901335654544 0.140766043481487 0.535849559658357
-0.090806889328889 0.328373437032479 0.523067041607943
0.271028124242574 -0.138837755271002 0.524596246042173
-0.009253220952673 0.322967590490869 0.516147095064343
-0.135306134011290 -0.114251576384820 0.529072710075293
-0.377953712656211 0.129215563956326 0.529204231363762
0.167831732445555 -0.075354157438161 0.529890536380489
-0.139016582910583 -0.144287325132394 0.525291655965571
-0.140509977149751 -0.049982392238489 0.524376818449029
-0.221253370336965 0.373957684063895 0.530175786259058
-0.246014979153941 -0.060323877151120 0.530250997814794
0.397063366788133 -0.064260160074071 0.527262850208189
-0.093992873788225 -0.023449414635518 0.520377978735875
-0.030642958163888 0.169308224757337 0.526751702971016
-0.394495144297094 -0.042081624959318 0.527070946674685
0.327085858987821 0.046442085228136 0.529907688599693
0.360081229662437 -0.060126510325888 0.523536233928518
0.093552476137767 0.432042246263868 0.526890100824050
0.389769595277110 0.034837539528535 0.519960344138898
0.335105162526278 0.315721742905842 0.533129678889597
-0.431009831725053 0.135323542909610 0.524857644209107
0.185769513003751 0.035056444492810 0.524117044930693
-0.289521704725323 0.405185352826567 0.526856045568540
-0.336525598668681 0.274408076709678 0.525603328180326
-0.339435079147210 0.470498598425784 0.525776669812955
-0.157164659143270 -0.143483592298066 0.527570296689226
0.359918342027254 0.472386379202462 0.530300449321146
0.365250770418463 -0.074360091678987 0.526739255924281
-0.431040298884127 -0.138476814578202 0.532416253881143
-0.007844351609510 0.189566796324782 0.529801837645460
-0.339837064764952 -0.068606317290958 0.527251353177429
-0.287566222531241 0.339996857601023 0.525463127616572
-0.232497069408005 0.383894598109979 0.519971663182020
0.285658242108059 0.038670189420888 0.527529181639867
-0.232901704920721 -0.110372065038989 0.528714107392133
-0.334919660333101 0.190894314518377 0.528828803184619
0.287505739794460 0.421883647348835 0.528751332178009
-0.383984760781284 0.046657733507985 0.531669572998163
0.286971728471951 -0.088836558407751 0.522539493169136
0.288562055288561 0.393584642385722 0.531907871357295
0.069386397193223 0.031752791142900 0.525284091159752
0.401181997777807 -0.153005774156323 0.525898169299206
0.150653263108336 0.173014220445403 0.518404657235611
0.275255956613391 0.134683696110270 0.519204788675858
0.388009364430309 0.019641723559000 0.523556173026489
-0.417420880398740 -0.022553522046759 0.527897404995427
0.028716530548209 -0.017064243535804 0.526223789257541
-0.099810676920549 0.317202363221295 0.523141517702155
0.190708412886829 0.196747958661731 0.516394490320286
-0.182596347312275 -0.019575903848450 0.524824749367598
0.007097777793169 -0.031406397087258 0.522602036655850
0.009040853915180 -0.005993463057887 0.518485046096699
-0.083034607056962 -0.012279115111618 0.528740855824598
-0.116951627885894 0.292205277303864 0.524095743531146
0.016057443249087 -0.088376037105301 0.518489540344175
0.140754736568513 0.042889003064015 0.518674887404260
0.258197431375601 0.250739058136135 0.533181706427251
-0.430567267400047 -0.135547410679250 0.527113635680893
0.310373127981956 0.178546054252865 0.530348168315081
0.349194488717664 0.090559821789339 0.531768860671394
-0.343317180108723 -0.097367644015990 0.530370453719089
0.378360337819773 0.091695672273968 0.534495219564128
-0.268878532361417 0.311866082891025 0.520051173512696
-0.036584085810096 -0.075759581744256 0.524630457516724
-0.063927719397227 0.045813979578148 0.523361684237514
-0.268114312747376 0.325941663575999 0.525237051295593
0.071219293621938 0.162481359528732 0.520146842187546
-0.242657847206584 0.327289264608959 0.524707752914280
-0.283016274060906 -0.075463339494510 0.532717312526368
0.422776196977231 0.382701131895893 0.528323352928744
-0.382939485145447 0.184740078342455 0.533212170666448
0.122340253935229 0.264495202856239 0.524842595613234
-0.184316663981512 0.326938445686763 0.530394127544865
-0.198323201920335 0.054630107560639 0.518397712247347
-0.109325979957367 0.128600526426263 0.526606955144780
0.213950001948524 0.125667890110285 0.521940644087829
0.320105630437395 -0.040951831400660 0.526170594623547
-0.456069660731662 -0.104346863697910 0.523779961336560
0.251501478019610 0.336291109184645 0.525793669947923
0.269280722091590 0.176001925183758 0.526250248388626
-0.053430270561224 -0.128850937511148 0.517086625049462
-0.040323437892732 0.299928079735731 0.519007657505825
0.378308510433013 -0.056986931824321 0.525168916205978
0.368793739831218 0.427204065372114 0.534583621888740
0.280968261379880 -0.039687271276930 0.531606993627050
0.042393754875849 -0.007160603628564 0.519019949954820
-0.080945990513500 0.288569401413026 0.521448167970869
0.283941882650919 -0.051254277293937 0.528438145957012
-0.133044115334628 0.155411369297677 0.523149030840988
-0.334028239053803 0.059455535912085 0.526997965996425
-0.289541450063092 0.289501698764408 0.522040167845140
0.138763863454352 0.367082079178081 0.520574200536282
-0.013088912997866 0.044760681465026 0.521801483498831
0.428302729125749 0.463897872916502 0.531653460420074
0.176483367843559 0.308993237870958 0.525881278351477
-0.090171875891711 0.078388966454214 0.524786552076452
-0.030832118069600 -0.114680957109673 0.523243351389729
0.073207223414252 0.387362045983458 0.527810348518687
-0.366318345761886 0.061631674840904 0.524790761952154
-0.313916269849746 0.040428542964072 0.531299403542681
-0.210798637628654 0.034172517282781 0.532697693386379
0.399445978000408 0.251182011305656 0.524507819357688
0.293744479344649 0.389319748330207 0.531760850297249
-0.247421606816005 -0.134423385787411 0.530337060979216
-0.035036122944861 -0.066350472411865 0.520258698690300
-0.454200517343032 0.186452107370437 0.537023280701741
-0.325105413018224 0.040089204089826 0.532055639358967
-0.205060495266281 0.351979057645794 0.521537077371176
-0.451024735401982 0.201356060089529 0.531493653452532
-0.392641836860833 0.126357157681492 0.528781149705312
-0.387068407785252 -0.124494448673028 0.533272561552156
-0.323850604550014 0.469687463902540 0.527088511617067
0.080731356398274 -0.057543635215427 0.519924441804929
0.160714618500850 0.372988135261233 0.528316170182621
-0.250475246651666 0.201235912313259 0.528144870114857
0.141135337823202 0.067380252052693 0.519834433198259
-0.226104259246010 0.087526912178134 0.530519714275668
-0.406969744820562 0.027397981421859 0.527049205991508
0.155502885804456 -0.043477233218699 0.527651042903678
0.251401984657009 -0.097236717983938 0.525942164192168
0.148235621918803 -0.032317855830486 0.523919369008511
-0.396524363365107 -0.139329195861196 0.531771904991203
0.238601644351336 0.173684134580168 0.522741915329167
0.083129214732094 0.132477851929501 0.518048399887342
-0.078990924370440 0.314606739085412 0.522718712961641
-0.100636760823267 0.240521266338467 0.523526720752794
-0.255142712280156 0.027249602000949 0.530335626002923
-0.056416634976183 -0.027399554193871 0.525809794253101
-0.022952736690418 -0.123542606289212 0.521891870740617
-0.447702675649556 0.112610351584121 0.531261042577103
0.326120522225073 -0.043348587878672 0.526288806417795
0.227218914652293 0.173629637878714 0.528250416317025
0.041148002696726 0.409173284109267 0.532294484707426
-0.140799012556971 0.077609674442131 0.541048408704307
-0.191301012384190 0.238254560447150 0.529150455525562
0.184931765865065 -0.052868385900624 0.528852101458052
-0.265406547791233 0.361042686317400 0.517341718701137
0.032742237754132 0.412978636569660 0.528257305721541
0.379923158389732 0.133299303372009 0.530879523537412
0.382385899426149 -0.040060361280460 0.526493381333766
-0.295617251158530 0.066223453184960 0.529391177710304
0.062321609419756 0.464841751788625 0.516784934875981
0.366052621786765 0.129465680395273 0.531992610027093
-0.168994623810565 0.204954808979383 0.526995915932810
0.232202093670397 -0.123804357060581 0.521855327783566
-0.459789754461916 0.195609397113934 0.532352767813090
-0.073534688545293 0.005020038899313 0.520013244489695
-0.366966626805745 0.122864753486403 0.531372473757520
-0.068674801170458 0.448906369154678 0.522013857705911
0.294613975575542 0.215580023418719 0.519743130082996
-0.015552928486704 0.171108495135065 0.522632803069176
-0.428755903589716 0.145207150720150 0.529133728223899
-0.165093616195268 0.016708396173075 0.525934106437024
-0.254560776422483 0.384463439268524 0.522607160710010
0.122504798447235 0.405422964275635 0.525761470351414
0.025639830787698 0.182903811350065 0.526338846186787
0.308668902493182 -0.108602351590306 0.525008950536140
0.013544970223198 0.288299967701245 0.525085168708738
-0.423144523508376 0.456601899794519 0.528728274007613
0.338709148291745 0.420923766539043 0.529856533280267
0.138756083678359 0.111637357999879 0.523798189353702
0.042202712192787 0.173334636197874 0.529432312411729
-0.093301558533831 0.408909633122028 0.523591839864724
-0.466292118964668 0.058618038333949 0.525704653503514
0.012463822703587 0.011177968384833 0.531443532717425
-0.213963586528401 0.454030315210418 0.525649091581992
0.051891075690600 0.161642361692341 0.527237957700577
0.212091063356259 0.403682651122886 0.526480887736466
-0.349898840889955 0.173346086262052 0.526741860488686
0.280179209749010 -0.000528464637298 0.526190255406702
-0.072682107283486 0.359633802770658 0.525889901641225
0.218928352957913 0.095099881260604 0.514496979662120
-0.419489721137421 0.489887109676147 0.527045244070052
0.123239489376650 0.123225315890700 0.518850362059635
0.263096822180948 0.288306880484212 0.529785970042226
0.098623871332853 0.404946878158218 0.525238771388542
0.239892969973134 0.031074096994864 0.526880011665789
0.047590051720822 0.329179078023648 0.528283966331658
-0.066936583299999 -0.035564836629504 0.522906694296223
-0.391005076728584 0.101624657944658 0.525335023802563
-0.009845513333919 0.139731806181351 0.521096397215340
0.312301840884390 -0.100342671793628 0.523887687834414
0.070230344668861 0.046572836433413 0.517998802115577
-0.289684554630165 0.227177256694219 0.531875097049817
0.194984932641177 -0.147657121261408 0.523079871828522
-0.437814723854505 0.007396011637306 0.519195547616863
-0.428675768935565 0.302394703240918 0.527924367504540
-0.338709557890735 0.004589519314259 0.535492222462164
0.238814609702853 0.306323595059063 0.536190308947997
-0.420770450234256 0.144857998213225 0.528347994509368
-0.275957899115807 -0.110503035318457 0.525723199577757
-0.406305865594214 0.135144807233630 0.534470231589200
-0.229628541090559 0.208776948881565 0.525724160445009
-0.052805155829742 0.360863479642737 0.527832619863908
-0.422229814898584 0.084718538167454 0.524623712509540
-0.208433866272983 0.270931651542612 0.527759783256233
-0.186991672737241 0.223645698527780 0.523860173894614
0.210538811862402 0.285229300794496 0.533637519763854
0.315938247275880 0.059950585295474 0.519135538612288
0.094522708386466 0.370262292872463 0.527350955782230
-0.026578698575009 0.339783648161598 0.523711222298457
0.065826040495300 -0.092962480152441 0.525342520700585
0.234525541316492 -0.045828631269382 0.530925637849854
-0.134368308909780 0.480079753608678 0.526039287208580
-0.334957368209754 0.256734604494124 0.530678476703803
-0.060518127916690 0.230440086485619 0.518193839479618
0.176349348834206 0.069554466243613 0.518656878173759
-0.327363094232095 -0.068627550580866 0.540891490404212
0.124463934376071 -0.030961722041615 0.524611061494933
-0.226736494964622 0.399344493220584 0.524875281580599
0.006588223408235 0.357894594128617 0.518009349286812
-0.237280887730354 -0.013661059928522 0.522964791865999
0.195334182838745 0.399912093503051 0.521694227287864
0.211362963239223 -0.141378370316917 0.525692209185443
0.359230780554861 -0.125793432313017 0.524658933174637
-0.409746339190688 0.051877771423556 0.526177771963186
0.198394686519054 0.416096026036107 0.524845993787006
-0.101265825208715 -0.117454720298308 0.524997400424524
0.134955377161981 0.195548568011721 0.523695342352812
0.203753507103773 0.369484557726263 0.529472170443386
0.088858970849021 0.069381985184678 0.521930639197497
0.241665135344201 0.309436147761023 0.541566461613563
-0.113806756148005 0.452137421065175 0.521062066218534
-0.280050072373625 0.349795378766186 0.519472061596676
-0.103559613832917 0.256287347831963 0.524326676339147
-0.446471386620908 0.294803791086694 0.531295672827153
0.123018013152969 -0.099024689987927 0.518755565599842
0.198519129466055 -0.060497296825295 0.521938902838027
-0.411891802444559 0.216127165136774 0.525364603034630
0.256808671548085 0.426420113042708 0.524605852146142
-0.031312618471371 -0.033027791501538 0.523296323408152
-0.335630568860656 0.328549123974718 0.524647065447417
-0.090499618726368 0.101927188697028 0.523176213522081
0.009232031919011 -0.138383133674237 0.523923593410536
-0.114951910842347 0.286483451241022 0.524903497270129
0.076332207302755 0.309818768543834 0.526388356154853
0.416761164437149 0.036049164541789 0.531831250055240
-0.051796045720579 0.383412771872811 0.522677922211064
-0.224324492633004 0.448059627490739 0.530683470717528
-0.009335834927340 0.098170731080306 0.526804019031272
-0.142469332789899 0.331021764501439 0.522917213748164
-0.436423730616837 0.224785474202737 0.526863130156852
0.429883904722512 0.255959418879495 0.523138667096709
-0.324548989519551 0.478192493614161 0.530392308511717
0.177346238018791 -0.067627684422933 0.518950299133474
0.062132148665500 0.181429711471196 0.527286632592194
0.364617624351501 0.351891521517818 0.536608493837049
-0.208598312295094 0.021513770026195 0.528558184041909
-0.393675944963174 0.303108201979889 0.520527105453756
-0.228421555009502 -0.031416541041457 0.534009456773153
-0.356761007731439 0.327896237053171 0.525503837045174
-0.036388543205664 0.381579383376383 0.516925983244726
0.393367781103241 0.097392363546927 0.532058981215943
-0.069205376062762 0.221263613984767 0.521195500895686
-0.297136098691906 0.406697597237752 0.524304588529635
0.372748444003085 0.021109618701584 0.516383943389932
-0.442194441287943 0.108420678028614 0.533717986065571
-0.440865770882044 0.255149049350997 0.527792201199528
-0.163014562215783 0.060957372749854 0.531772190862491
-0.053060747288088 0.323536293435891 0.517494423571838
-0.463826820640315 0.380441054213902 0.533091242870802
0.159912234014146 0.237940342514267 0.526064456895563
-0.093086863752082 0.438253477404846 0.514241428614040
0.004560762557525 -0.073375523753323 0.526742662148091
0.096712448015637 0.186572087615398 0.519112818972282
-0.262298589313113 0.138384424435131 0.530776127020900
-0.408090112910626 0.007721612357072 0.531501020688536
0.426746306109129 -0.034717468107989 0.525403980665570
0.253155956241998 -0.135990431383554 0.520878484000878
0.146204582253739 0.188403746705944 0.519384890274174
0.195928177466415 0.141999745933756 0.521109906788159
0.087406043362812 0.003698198604364 0.521257126440568
0.150013933442576 0.116271634632375 0.518024183325205
-0.062305429064728 -0.069947862452856 0.523427501232546
0.382762262407144 0.288219542026093 0.529459802412196
0.349298160509309 0.302222797971611 0.534836572664367
-0.194164062765617 0.166895865019091 0.533864491966678
0.386199773312591 0.483248709909475 0.528875691025683
0.193644948799748 -0.036766825888956 0.523708790586800
-0.188644228173110 0.405724344466517 0.516116643242660
0.026687517892669 0.285349609530994 0.526181956526066
-0.233492223495370 0.096217998465987 0.525502864400053
-0.063738966764817 0.300690331415597 0.527904221102282
-0.269932053297688 0.415036283112238 0.526491621760156
0.202186713009701 0.145161172584673 0.520364921154242
-0.136793642086346 -0.030649880294104 0.528340481791319
-0.399216668296905 0.362419534353833 0.525511389954407
0.357386301261306 0.239215983697604 0.532527941401118
-0.353473586104803 0.222408433845850 0.527747075922188
-0.231647433285871 0.146678545997255 0.533925687290962
-0.018474344155214 0.220505921043475 0.524713361667288
-0.073229593685025 0.344765157595263 0.521679171059731
0.234563884535786 0.106375555927436 0.521605906372065
0.149459279117942 0.132908597827637 0.520427217774927
0.184113884146728 0.086061514355798 0.528271316676808
0.416744447940026 0.203094425983336 0.526963866236342
0.231482228525321 0.426669210887571 0.529628018910429
0.259098973143847 0.053650492140211 0.528001870517610
0.049185867203061 0.286138978745783 0.529473454925636
-0.417696062047213 0.057019671184617 0.528248419382269
0.361346606317416 0.366510242538915 0.532694979645427
0.114342647714181 0.204471349725650 0.526165938001435
-0.356860264420263 0.182343382751076 0.535485756235118
0.416424621177382 0.402943860510772 0.526870371204957
0.207800624646486 0.102629599033099 0.521299429686250
0.094743150999353 0.234195471344765 0.519490545329339
-0.230914781358474 0.337832558263654 0.521970171631172
0.106161583420880 -0.007685669837875 0.519805313215526
0.116418812585456 0.334199257829308 0.526583040898907
-0.262868893191205 0.098134078251436 0.526712443152286
0.030053981005470 0.481437444732685 0.526721636354471
-0.197541062984779 0.198325957950569 0.523083773535442
0.177332353176289 0.101950555734650 0.518910440041721
-0.429989493710152 0.144016197003402 0.532301395429341
-0.183347059757237 0.203522686417010 0.519857720397873
0.403451601954447 0.125061022378800 0.530428917159767
0.416613578146968 0.123443291667031 0.531617659747387
0.190339998441475 0.022555395085874 0.520351825446014
-0.129225618651530 -0.124262842315958 0.535350572539123
-0.380936418391804 0.387399747808415 0.521794984737631
0.247781902535595 0.261032771583028 0.536181631108755
-0.010123550890012 0.447027739850513 0.528518105963220
-0.425418921816623 0.407823604664396 0.526463368976341
0.210396328306246 0.200180492024498 0.522401681286156
0.225526697427944 -0.090396785264930 0.526111754530630
0.024086531915315 0.109942331912651 0.528726139389225
